 -8.0816300e-002  1.5005600e-001  1.1738300e-003
 -7.4258300e-002  1.2978000e-001  5.2399800e-002
  4.5925100e-002  8.4819500e-002  1.2171200e-002
  4.7489900e-002  6.6497500e-002  2.7404500e-002
 -2.0453600e-002  1.8488800e-001 -1.3986800e-002
  2.3223800e-002  8.2254100e-002  4.9498600e-002
 -5.2815100e-002  1.3253900e-001  3.2386300e-002
 -7.8518500e-002  1.6527000e-001 -2.8962100e-002
  1.2254800e-002  1.2606300e-001  2.9944100e-002
  2.5036300e-003  4.8988100e-002  5.1344300e-002
 -1.5025900e-002  1.8569400e-001 -2.3164500e-002
 -9.1804900e-002  1.2680400e-001  8.2681700e-003
  2.3660000e-002  8.4899600e-002  4.8392400e-002
  1.5286900e-002  7.9460300e-002  5.3811600e-002
  2.3594900e-002  8.7575100e-002  4.8313200e-002
  7.6607900e-003  6.1675300e-002  5.4913900e-002
 -3.1834600e-002  9.1562200e-002 -2.4444400e-002
 -6.6537600e-002  1.4254600e-001  4.2506100e-002
 -6.4969800e-002  4.4425200e-002 -2.8260100e-004
  2.4208700e-002  3.9076000e-002  3.4300700e-002
 -2.5172800e-002  1.7120000e-001 -1.9485700e-002
  5.5893400e-002  7.2850500e-002  1.2704700e-002
 -2.5134200e-002  8.7882600e-002  5.1634300e-002
 -6.6538600e-002  8.0453600e-002  4.2224000e-002
  3.8577400e-002  8.8801100e-002  3.4819900e-002
 -6.2736800e-003  1.2813600e-001  2.7602800e-002
 -8.9633300e-002  9.2955400e-002  1.8431000e-002
 -8.7034700e-002  1.3912000e-001  6.1925300e-003
  3.8536800e-002  8.0056800e-002 -1.2716700e-002
  4.0038600e-002  8.7141500e-002 -1.1788900e-002
  4.1721600e-002  1.0000800e-001 -8.1245400e-004
  4.3249300e-002  1.0010700e-001  7.1675200e-003
 -7.9334800e-002  9.8089600e-002  3.4660100e-002
 -8.7109700e-002  1.2979200e-001  4.7042800e-002
 -3.3458200e-002  5.1896900e-002  3.7723800e-002
  3.7274800e-002  5.7628300e-002  3.2644400e-002
 -4.8193000e-002  1.3302700e-001  2.4192600e-002
 -3.5877800e-002  1.5950600e-001  2.4086300e-003
  4.5372800e-002  7.3562200e-002  2.2150300e-003
 -9.0498000e-002  1.3106900e-001  3.6230100e-002
 -5.4672200e-002  1.3956700e-001  2.9705600e-002
  1.1294100e-002  1.2745700e-001  2.8160400e-002
 -7.3773900e-002  8.7847900e-002 -1.5389300e-002
  4.0089600e-002  7.0292200e-002 -9.8071600e-003
 -6.7967800e-002  3.8322100e-002  1.2390300e-002
 -6.8980700e-002  1.5501200e-001  2.9311400e-002
 -6.7386300e-002  1.4635200e-001 -2.4435300e-002
  3.5893900e-002  5.9155200e-002  3.5962800e-002
 -8.8877100e-002  1.0099400e-001  1.1394000e-002
 -2.7852500e-002  8.0780500e-002  4.7476100e-002
 -7.9101500e-002  1.7003400e-001 -3.8269100e-002
  2.7361300e-002  5.9295900e-002 -2.1766200e-002
 -6.6508400e-002  9.0347300e-002  4.4027300e-002
 -2.6518000e-002  1.0985000e-001  3.8607100e-002
 -2.7064600e-002  5.3566000e-002  3.7666100e-002
 -2.7222100e-002  9.0438200e-002  4.6567500e-002
 -9.7956800e-003  1.7877600e-001 -2.7773300e-002
  4.5544400e-002  7.7486600e-002  2.1720900e-002
 -6.9496300e-002  1.6803000e-001 -5.2006900e-002
 -3.8490500e-002  5.9129500e-002  4.0481300e-002
 -2.7487200e-002  9.4655000e-002  4.5096900e-002
  3.1054100e-002  7.2714200e-002  4.1375600e-002
  4.2642600e-002  8.5899700e-002  2.8340100e-002
  4.5539600e-002  8.3395000e-002  2.0166800e-002
 -6.1453100e-002  1.5411800e-001  3.0509700e-002
 -6.5554800e-002  1.5378800e-001 -1.4608500e-003
 -4.9384500e-002  6.5788500e-002  3.6832100e-002
 -8.1472100e-002  1.3536100e-001  4.9767100e-002
 -6.1896200e-002  4.4364800e-002  2.8681300e-002
 -5.6862300e-002  9.4134500e-002 -2.1551200e-002
 -6.2515900e-002  1.6312200e-001 -3.0592500e-002
  4.4899900e-002  8.6135100e-002  1.8618600e-004
 -2.9496100e-002  1.0430200e-001  4.1337400e-002
 -5.4554100e-002  1.6071400e-001  5.4051100e-003
  4.4907000e-003  1.1964800e-001  3.7008800e-002
 -5.7271500e-002  4.8200600e-002  3.6581700e-002
 -3.6443100e-002  3.7951800e-002 -2.9673600e-002
 -2.3421700e-002  3.5915500e-002  5.3370400e-002
 -3.4521700e-002  1.2711900e-001  4.2513900e-003
 -8.4857000e-002  9.2491900e-002  2.9051200e-002
  8.4985700e-003  1.1825400e-001  3.7392400e-002
  1.8470700e-002  1.0705400e-001  4.1378300e-002
 -2.4963400e-002  6.3120100e-002 -3.2454200e-002
 -3.6491100e-002  6.6259600e-002  4.1455000e-002
 -1.9375100e-002  7.1144800e-002  5.3468600e-002
 -5.6693300e-002  4.7898300e-002 -3.3852500e-003
 -4.3501500e-002  8.6056000e-002  4.3220000e-002
  5.2406200e-002  4.9102200e-002  1.2813800e-003
 -2.2488700e-002  1.2077700e-001  3.0679400e-002
  2.7660500e-002  6.0560800e-002  4.3410700e-002
 -9.4948700e-003  1.1143000e-001  4.2227100e-002
 -6.1225200e-002  6.1841300e-002  2.4801800e-002
 -3.6929600e-002  3.6554000e-002  4.5141400e-002
 -6.7006400e-002  1.5628100e-001  2.2693600e-002
 -7.2509100e-002  1.4785300e-001 -2.8719500e-002
 -5.4596500e-002  5.7549600e-002  1.9612600e-002
 -5.0805900e-004  5.7631600e-002  5.4476700e-002
 -3.4004700e-002  3.8604700e-002 -3.0279600e-002
 -6.2841300e-002  1.4440900e-001 -7.6345000e-003
 -5.2651500e-002  5.0439200e-002  2.8652500e-002
 -5.1694100e-002  1.4780400e-001  1.6416600e-002
 -6.6880100e-002  1.0382100e-001 -1.5300200e-002
 -2.6598500e-002  5.6216400e-002 -2.7412000e-002
 -6.0778900e-002  1.2122700e-001  4.1947100e-002
 -8.9215700e-002  9.5640400e-002  1.8419300e-002
 -4.1146100e-002  1.6217300e-001 -1.1361300e-002
 -7.1859700e-002  1.4872800e-001  4.0425100e-002
 -1.6609400e-002  1.2860200e-001  1.3686800e-002
 -5.2252400e-002  5.6616700e-002  2.4541500e-002
  1.5900900e-002  1.1325700e-001 -1.6052900e-002
 -2.4908600e-003  1.1694500e-001  3.9899900e-002
  4.4290200e-002  8.7503500e-002  2.4147100e-002
 -4.9371200e-002  5.7259800e-002  3.4295200e-002
 -9.2975300e-002  1.1876000e-001  2.5308300e-002
  1.8797400e-002  3.9834900e-002 -1.8728500e-002
  1.6574700e-002  5.1980800e-002  4.6620700e-002
 -7.6491000e-002  1.4003700e-001  4.8095700e-002
  5.4376800e-002  7.3186100e-002  1.0653900e-002
 -3.1169600e-002  7.4902500e-002 -3.1542000e-002
 -8.9878700e-002  1.1222400e-001  1.6936100e-002
  3.6212200e-002  1.1217600e-001  1.8805900e-002
 -3.3821800e-002  8.8693400e-002 -2.4694100e-002
 -7.9819300e-002  9.9387900e-002  3.3691300e-002
 -5.2230100e-002  3.8836400e-002  4.6781300e-002
 -3.4451300e-002  1.7276500e-001 -8.1300800e-004
 -3.4622900e-002  1.1683300e-001 -1.3601600e-002
 -6.4256500e-002  4.1889700e-002  3.8407200e-002
 -6.7518700e-002  8.7497600e-002  4.3783400e-002
 -2.4507800e-002  7.6761100e-002  5.1333100e-002
 -2.1800700e-002  6.3789100e-002  4.6255300e-002
 -1.9494900e-002  1.2219800e-001  3.0307400e-002
 -1.4478400e-002  6.4527900e-002  5.3503500e-002
  7.4860200e-003  4.1302000e-002  4.5475900e-002
  4.1157100e-002  8.4683100e-002  3.1427300e-002
 -1.6871300e-002  1.0446300e-001 -2.2760600e-002
  5.9353200e-002  6.3610300e-002  2.1183500e-002
 -7.9400100e-003  9.9421400e-002  4.9751000e-002
 -8.6437200e-002  1.4049000e-001  6.1886900e-003
  1.4375900e-002  1.2137400e-001 -1.0803800e-002
 -5.7278400e-002  5.7683800e-002  1.6050100e-003
  5.6022300e-002  7.1369500e-002  6.8247500e-003
 -7.2533300e-002  3.7968600e-002  5.7575400e-003
 -3.3955200e-002  6.9526400e-002 -1.8516900e-002
  1.7482100e-002  9.9000400e-002  4.6968200e-002
 -2.9184800e-002  6.4900700e-002 -2.8470800e-002
 -2.9372300e-002  4.2298400e-002  5.1571200e-002
 -9.0752200e-002  1.3647800e-001  1.9199900e-002
 -2.5873800e-002  1.2582400e-001  1.4744300e-002
  5.6325100e-002  6.8689100e-002  2.3417400e-002
  1.2093000e-002  1.2050400e-001  3.5232300e-002
 -8.6319100e-002  8.0634900e-002  1.6493900e-002
 -1.2497600e-002  4.7200700e-002  4.7981400e-002
 -1.5001100e-003  1.0304500e-001  4.4056400e-002
 -1.7500300e-002  4.9922500e-002  4.7006100e-002
  4.6572700e-002  5.5459200e-002  3.2092300e-002
 -1.9484800e-002  8.6969400e-002  5.6313400e-002
 -5.3836300e-002  4.9149200e-002  3.0660100e-002
 -5.0713200e-002  5.4338000e-002  1.4600400e-002
  6.0164200e-002  6.2286500e-002  7.1402000e-003
 -4.5549100e-002  1.3145100e-001  1.7828200e-002
  2.6220600e-002  4.3574400e-002 -6.6823700e-003
  3.6941200e-002  1.0732100e-001  2.7172200e-002
 -2.9547100e-002  8.0466400e-002  4.3637800e-002
 -3.2995800e-002  7.9337800e-002 -2.7510200e-002
  2.6624700e-002  5.9198700e-002  4.3652800e-002
  2.5432900e-002  8.3570100e-002  4.7410200e-002
  3.1372300e-002  5.9757300e-002 -1.7592500e-002
 -1.4433600e-002  1.2097400e-001 -1.0115100e-002
  8.9357000e-003  1.3131100e-001  1.4389900e-002
 -2.9543400e-002  1.6826800e-001 -7.7759500e-003
  1.4095000e-002  4.1997000e-002  4.4663800e-002
 -8.0288400e-002  1.4610900e-001  4.1192900e-002
  1.6206000e-002  9.2722700e-002  4.9924400e-002
 -8.6904100e-002  1.4192900e-001  3.9437400e-002
 -7.0531500e-002  9.1590300e-002  4.1934800e-002
 -1.0533000e-002  1.7864400e-001 -2.5906000e-002
  4.9039000e-004  9.5201900e-002  5.4477300e-002
 -6.4485500e-002  1.0150200e-001  4.1933500e-002
 -8.7120000e-003  1.7115600e-001 -2.5723200e-002
 -1.9315600e-002  1.6250200e-001 -7.0298200e-003
 -5.5516400e-002  4.8286600e-002  3.8726500e-002
 -8.4707700e-002  1.4041100e-001  2.2400200e-003
 -1.3157000e-002  1.7571200e-001 -2.0957700e-002
 -6.5551700e-002  1.5593700e-001  2.4666100e-002
 -9.0740300e-002  1.3509300e-001  1.6210600e-002
 -7.0402500e-002  1.5659600e-001 -3.5566500e-004
  6.0332200e-002  6.3692400e-002  1.8180100e-002
  5.7704100e-002  7.0377800e-002  7.1623700e-003
 -8.9463700e-002  1.3653400e-001  3.1204000e-002
 -5.5290800e-002  1.5829400e-001 -7.7128200e-004
 -5.4498500e-002  1.0429500e-001  4.1211700e-002
 -2.9718700e-002  5.2311900e-002 -1.9365100e-002
  2.5712400e-002  7.9575400e-002  4.7792400e-002
  2.3136600e-002  4.0426800e-002 -6.6429400e-003
 -9.1428500e-002  1.4474300e-001  2.2153700e-002
 -4.6933400e-003  1.0105100e-001  4.4176100e-002
 -6.0871400e-002  3.8513400e-002  1.9536800e-002
 -8.9488300e-002  1.3928500e-001  3.0185700e-002
 -1.6454100e-002  6.3081700e-002  5.2762300e-002
 -6.3066300e-002  1.5187400e-001 -7.8290800e-003
  3.2804100e-002  6.8257500e-002 -1.7776400e-002
 -6.1980800e-002  4.6919200e-002  2.6885700e-003
  4.4441000e-002  9.3115000e-002  1.2019100e-003
 -7.4941800e-003  5.3307400e-002  5.2684100e-002
  4.3483600e-002  7.3401900e-002 -2.7922200e-003
 -6.1186500e-002  4.4121200e-002 -4.3266900e-003
  4.1166000e-002  8.1993400e-002  3.1441600e-002
 -6.9096700e-002  1.4893800e-001  3.9878400e-002
 -8.4492800e-002  9.7986100e-002 -2.5898600e-003
 -7.4272100e-002  1.6660800e-001 -4.0999700e-002
 -4.8525700e-002  1.2108700e-001  2.9747200e-002
 -4.0417500e-002  1.7120900e-001 -9.8700400e-003
 -2.7502800e-002  9.8800600e-002  4.3559300e-002
 -4.3500900e-002  1.1796700e-001  3.0956000e-002
  3.5087700e-003  6.8881000e-002  5.5769200e-002
 -7.9752500e-002  1.5498000e-001  1.2410300e-002
 -1.1652700e-002  1.2955700e-001  8.2683100e-003
 -7.6184900e-002  9.3371900e-002 -1.3501700e-002
  4.3719600e-002  8.4640100e-002 -3.7978200e-003
 -7.6911100e-002  1.0043400e-001 -1.0566200e-002
 -7.2054100e-002  7.7760600e-002  3.7902700e-002
  3.9857600e-002  1.0136200e-001  2.6182400e-002
  4.2563000e-002  6.5070500e-002  2.7561900e-002
 -1.5476700e-002  5.4527200e-002  5.0724100e-002
  3.8857900e-002  9.7001500e-002 -7.8400000e-003
  3.3144400e-002  5.8444100e-002 -1.4721200e-002
 -8.5610000e-002  1.2302600e-001  4.8656100e-002
  1.2542300e-002  1.2094100e-001 -1.2332000e-002
 -5.9684900e-002  1.3669300e-001  3.4769300e-002
 -6.2046300e-002  1.5842800e-001 -2.0587300e-002
  1.6717800e-002  1.2857400e-001  8.6966600e-003
 -5.2878100e-002  4.9083800e-002  3.4662200e-002
 -7.4564700e-002  1.6219100e-001 -1.3251800e-002
 -3.4702800e-002  1.2273100e-001 -7.7671600e-003
 -2.7886200e-002  1.6535900e-001 -7.1391900e-003
 -1.4488200e-002  1.0162300e-001  4.3728600e-002
  4.0287100e-002  1.0419600e-001  2.1160800e-002
  4.3059200e-002  8.7192600e-002  2.7178800e-002
  4.3930500e-003  1.1559000e-001 -1.8534000e-002
 -4.9129300e-002  4.3039800e-002  4.4241300e-002
 -3.7496400e-002  1.1801500e-001  3.1271700e-002
 -6.1497700e-002  8.4733400e-002  4.4255300e-002
 -5.4495000e-002  9.3212100e-002  4.4536700e-002
  4.1033000e-002  7.8811300e-002 -7.7656000e-003
 -7.0491900e-002  1.2601200e-001  5.2539000e-002
 -9.0834500e-002  1.3923900e-001  2.0180000e-002
 -6.2490500e-002  8.0459800e-002  4.3180500e-002
 -7.4107100e-002  1.5410100e-001 -2.3905500e-002
  4.1497000e-002  5.2790200e-002  3.2477700e-002
 -3.7497600e-002  8.8882100e-002  4.3374300e-002
  2.1385100e-002  7.5491600e-002  5.0294000e-002
 -7.4294900e-002  1.7555000e-001 -4.2218500e-002
  4.2142300e-002  7.3811700e-002  2.9239300e-002
 -6.2984800e-002  1.3671800e-001  3.7002800e-002
 -1.0506400e-002  8.8402100e-002  5.6786800e-002
 -4.2023800e-002  4.6407800e-002 -1.4347100e-002
  1.4234900e-002  1.2972300e-001  1.0627400e-002
 -5.8498200e-002  1.0839800e-001  3.8796600e-002
 -7.0387200e-002  1.6104400e-001 -4.6966400e-002
 -5.1494700e-002  8.1921600e-002  4.4272100e-002
  4.4557500e-002  8.4727600e-002  2.4157500e-002
 -8.9117500e-002  9.8345500e-002  1.9404400e-002
 -2.1266900e-002  1.2373600e-001  2.5234300e-002
 -7.7394800e-002  1.6730900e-001 -2.8540000e-002
 -7.3174600e-002  1.5406600e-001 -3.1909600e-002
  7.4921200e-003  1.3149500e-001  1.5291300e-002
  4.1309600e-002  9.5720200e-002 -4.7882600e-003
 -7.2891200e-002  1.1354000e-001 -7.5648400e-003
 -5.7604600e-002  1.5106700e-001  3.2637500e-002
 -8.7032900e-002  1.5294200e-001  1.8754500e-002
 -5.3498400e-002  7.7615900e-002  4.3127900e-002
  1.9483300e-002  9.6199100e-002  4.7195700e-002
  2.3463500e-002  1.2256000e-001  2.6885700e-002
 -4.2493700e-002  7.9008100e-002  4.2816100e-002
 -4.2135400e-002  4.4942600e-002 -1.7319300e-002
 -6.1483400e-002  1.6620300e-001 -5.7627100e-002
  4.2337900e-002  6.8311800e-002  2.7720900e-002
 -7.0510900e-002  1.4835600e-001  4.0725700e-002
 -2.0510200e-002  4.6185300e-002  5.2170300e-002
  5.0398600e-002  4.4607500e-002  1.7210600e-002
  4.3554200e-002  7.0935100e-002  2.5915300e-002
 -3.4291100e-002  4.7369200e-002  4.2196800e-002
 -4.2497900e-002  8.1755700e-002  4.2087100e-002
 -9.1536000e-002  1.4748200e-001  2.2136300e-002
 -7.2534800e-002  1.4977700e-001 -3.8743500e-002
  2.4311300e-002  1.1902400e-001 -6.2727000e-003
 -3.2717600e-002  1.2544400e-001  1.9627600e-002
 -6.3712300e-002  4.4575400e-002  3.3687500e-002
 -4.8499000e-002  8.4803200e-002  4.5130700e-002
 -9.0283900e-002  1.3783100e-001  1.5195900e-002
 -9.0804300e-002  1.2268300e-001  6.2765100e-003
 -1.5498100e-002  6.0248000e-002  5.2464600e-002
 -9.4885400e-003  9.6544500e-002  5.3432400e-002
  3.2633600e-002  5.1974600e-002  3.4653200e-002
 -5.2501200e-002  4.6573000e-002  4.2039100e-002
  1.1533100e-002  1.0188900e-001 -2.1878100e-002
 -6.5369500e-002  1.5123300e-001  3.6614700e-002
 -3.5115400e-002  1.2743700e-001  1.2830800e-002
 -2.3030900e-002  9.0652300e-002  5.2297800e-002
  5.0765600e-002  4.4625600e-002  1.5214200e-002
  4.6183000e-002  8.0640400e-002  1.4175800e-002
 -6.1152200e-002  4.5903000e-002  3.9328600e-002
 -4.4341700e-002  3.5118000e-002 -2.4371600e-002
 -3.0205800e-002  6.4996200e-002 -2.6458800e-002
 -6.6501900e-002  8.1814100e-002  4.2854300e-002
 -2.4488700e-002  1.0024400e-001  4.4339300e-002
 -5.8188100e-002  1.2552100e-001  4.0435700e-002
 -2.6158900e-002  6.6016200e-002 -3.2506300e-002
 -4.7212700e-002  1.6841200e-001 -1.9870000e-003
 -2.5354600e-002  1.2181600e-001  2.6750800e-002
 -5.0881400e-002  1.6141900e-001  6.6624000e-003
 -7.9478700e-002  1.0452400e-001 -6.6004300e-003
 -4.5859900e-002  1.2959400e-001  2.2173500e-002
 -6.8715800e-002  1.7162600e-001 -3.7271400e-002
 -4.8815800e-002  9.1288100e-002 -2.1705200e-002
 -7.3392400e-002  6.5646100e-002  1.8954000e-002
 -1.0263400e-002  1.2946700e-001  4.4497100e-003
 -7.8032900e-002  1.5547600e-001  2.1765700e-002
 -6.4455800e-002  1.5589400e-001  1.1990000e-002
 -8.9290400e-002  1.4981400e-001  2.4685000e-002
 -1.1997200e-002  1.1563800e-001 -1.6505100e-002
 -6.5548400e-002  3.9711000e-002  1.4278500e-002
  3.6646200e-002  1.0073600e-001  3.2054100e-002
 -9.1466000e-002  1.4613000e-001  2.4150100e-002
 -8.4279400e-002  1.1563600e-001 -7.4784900e-004
 -8.5307200e-002  1.2986200e-001  4.9499400e-002
  5.8456700e-002  7.0180800e-002  1.8095000e-002
  4.5537000e-002  8.9003300e-002  1.3164300e-002
  2.9585000e-002  4.9559100e-002 -1.2745900e-002
 -6.7517100e-002  4.0922900e-002  1.0548900e-002
 -3.6491300e-002  1.1388900e-001  3.3829500e-002
 -7.1339300e-002  1.3406700e-001  4.9621500e-002
  4.5434500e-002  9.1811200e-002  1.1162600e-002
 -4.6486200e-002  7.1899800e-002  4.1525100e-002
 -8.0189600e-002  9.2657300e-002  3.4266000e-002
 -4.7662300e-002  1.3557200e-001  1.2400100e-002
  5.6725900e-002  5.3642800e-002  4.1777800e-003
  2.7205100e-002  4.6542500e-002 -1.2709500e-002
  3.4913200e-002  1.1435300e-001  1.2610500e-002
 -7.7650800e-002  1.5284500e-001 -8.9288400e-004
 -6.9581700e-002  1.6884800e-001 -2.6128900e-002
 -3.2497400e-002  8.5985700e-002  4.2346900e-002
 -3.5664600e-002  1.5510200e-001  2.6804000e-003
 -5.0891300e-002  4.7408800e-002  1.8648800e-002
  3.5433300e-002  1.1100100e-001 -8.2713400e-004
 -4.7095700e-002  3.7663200e-002  4.5349300e-002
 -5.3491700e-002  4.9119100e-002  2.8659100e-002
  5.1402400e-002  5.1093900e-002  2.6678500e-002
  3.7308900e-002  6.0486900e-002  3.4523600e-002
  1.4498500e-002  1.0711100e-001  4.2156800e-002
  4.6259500e-002  8.3441400e-002  9.1761200e-003
 -7.9909700e-002  7.0649300e-002  1.3225400e-002
  3.0646200e-002  9.6895400e-002  4.0957500e-002
 -8.9030000e-002  1.1993200e-001  2.3256100e-003
  2.9667300e-002  5.9177500e-002  4.1017700e-002
 -6.5343900e-002  1.2701100e-001  4.7729600e-002
 -3.4960700e-002  1.2501800e-001  2.1766200e-002
 -8.8472400e-002  1.1184200e-001  9.3465000e-003
 -5.6497300e-002  7.6211600e-002  4.2820500e-002
 -7.9699000e-002  1.0179800e-001 -7.5760200e-003
 -6.5883800e-002  1.6421000e-001 -2.0450900e-002
 -3.8492100e-002  1.1113100e-001  3.6197700e-002
  3.0610900e-002  5.4984200e-002  3.8821000e-002
 -4.8931500e-002  1.3707800e-001  1.7394200e-002
 -5.4860600e-002  5.3273400e-002 -4.3905200e-003
  2.5639000e-002  7.4046100e-002  4.5838900e-002
 -8.3726200e-002  1.5136700e-001  5.2214900e-003
 -3.9964700e-002  1.2863500e-001  8.1111900e-003
 -2.4714500e-002  1.6105200e-001 -2.5256900e-003
  1.8294600e-002  1.2350200e-001  2.9270100e-002
  3.6679800e-002  1.0537600e-001 -5.8217200e-003
 -2.7475100e-002  1.0928600e-001 -1.9717000e-002
 -1.3505600e-002  8.4265600e-002  5.7230500e-002
  3.3507600e-002  4.5389500e-002  3.0075600e-002
  1.4853400e-003  3.8584500e-002  4.6432500e-002
  1.5025400e-003  6.0584400e-002  5.6050600e-002
 -4.8020000e-002  1.3606800e-001  1.5368400e-002
 -6.2822500e-002  9.1040400e-002 -1.8948900e-002
  5.3871600e-002  6.6144800e-002  2.6849400e-002
  1.7489800e-002  8.7401400e-002  4.9996400e-002
 -9.0891300e-002  1.3919400e-001  1.7138900e-002
 -6.3498800e-002  1.7369300e-001 -6.1544600e-002
  5.0263200e-002  7.1349700e-002  2.2405000e-002
 -3.4831900e-002  9.4364500e-002 -2.3676700e-002
  5.7550800e-002  5.2339300e-002  8.1857400e-003
  3.8272900e-003  1.0641100e-001 -2.0717400e-002
  8.4860000e-003  5.3275900e-002  5.2145800e-002
 -9.1226000e-002  1.2816100e-001  7.2700200e-003
  3.6646700e-002  6.7330500e-002  3.7115800e-002
 -3.9693100e-002  1.2618300e-001  2.0031100e-002
 -3.4522600e-002  8.4631500e-002  4.2755100e-002
 -2.4617100e-002  1.2589700e-001  4.9629200e-003
  6.0569100e-002  6.3710500e-002  1.7175500e-002
  3.5191800e-002  6.7350100e-002  3.8529200e-002
  3.0692500e-002  1.1900300e-001  1.8175100e-002
 -7.5903900e-002  1.5492800e-001 -8.9291000e-004
 -7.5806800e-002  1.7082200e-001 -4.4999800e-002
  4.2133900e-002  1.0287100e-001  8.1637700e-003
 -5.2885600e-002  1.0415600e-001 -1.9805300e-002
 -6.8352500e-002  1.5527700e-001  1.8688400e-003
 -3.3433800e-002  3.8223400e-002  5.0090900e-002
 -6.1059100e-002  1.5538700e-001  2.4814000e-002
 -7.8283600e-002  8.6013900e-002  3.6798200e-002
 -2.5163600e-002  1.1975900e-001 -1.0712800e-002
 -7.2526000e-002  1.4997200e-001 -4.2468600e-002
 -2.4488800e-002  1.2070600e-001  2.9403500e-002
 -4.2965600e-002  1.1506100e-001 -1.5713800e-002
 -7.0955200e-002  1.3405200e-001 -8.1759600e-003
 -4.3252400e-003  4.2373800e-002  4.7881000e-002
  3.3703400e-002  7.4096900e-002  3.9948900e-002
  1.1512200e-002  1.0446300e-001  4.4964100e-002
 -7.2616200e-002  1.6661200e-001 -4.4000600e-002
  1.8395400e-002  6.4528600e-002  4.9377500e-002
 -4.7622700e-002  3.7031100e-002 -1.2818900e-002
 -7.4172800e-002  1.5268000e-001 -2.8889800e-002
  4.1469000e-002  7.1138400e-002  3.0016700e-002
 -6.5318700e-002  1.5249200e-001  3.5121500e-002
 -8.8367800e-002  1.2808900e-001  2.2745100e-003
 -3.0405400e-002  5.8010200e-002 -1.9406200e-002
  1.7086700e-002  3.9703000e-002 -2.0699900e-002
  3.9568200e-002  5.8272600e-002  3.0700100e-002
 -7.4140800e-002  1.0521400e-001  3.6938500e-002
 -7.7290600e-002  1.6590600e-001 -2.5763700e-002
 -4.0193400e-002  3.6535100e-002  4.2911900e-002
 -6.2456600e-002  1.7724500e-001 -5.8615500e-002
 -4.9763000e-002  1.3277400e-001  2.8053200e-002
  1.2606300e-002  5.7659600e-002  5.1485900e-002
 -6.0907300e-002  4.2323700e-002  1.5229700e-002
  5.8102800e-002  5.2365800e-002  1.2180600e-002
 -4.8546100e-002  1.3560700e-001  1.9486100e-002
 -1.4497200e-002  7.7280500e-002  5.6565300e-002
 -8.4429600e-002  7.7742500e-002  6.5167200e-003
 -1.5009500e-003  9.2525300e-002  5.5852500e-002
 -7.0968300e-002  1.3697600e-001 -7.6981400e-003
 -8.9612900e-002  1.3929400e-001  3.2188400e-002
 -6.6528600e-002  1.6803100e-001 -5.8034200e-002
 -7.9481600e-002  8.4614900e-002  3.5227900e-002
 -5.6499500e-002  8.8984700e-002  4.4819800e-002
 -3.1068300e-002  6.7910400e-002 -2.5455100e-002
 -6.9935000e-002  1.2823200e-001 -9.1385800e-003
  4.3245200e-002  1.0010500e-001  1.1157900e-002
 -3.2428600e-002  1.2666300e-001  1.0866800e-002
 -4.0850500e-002  9.7129300e-002 -2.2095000e-002
  1.1500900e-002  1.1125600e-001  3.9272800e-002
 -4.5381000e-002  3.8167600e-002 -2.1266800e-002
 -5.8130900e-002  1.5550200e-001  1.7154000e-002
  3.8908000e-002  6.3163200e-002  3.3303000e-002
 -7.7566000e-002  1.5525200e-001  1.0249700e-002
  3.9463500e-002  7.5864000e-002 -9.8205700e-003
 -7.0769300e-002  1.7676700e-001 -4.6657700e-002
 -4.5800400e-002  3.5343400e-002 -2.1332000e-002
 -7.5613700e-002  1.7648800e-001 -4.4187600e-002
 -5.3867200e-002  1.4931100e-001  2.5406000e-002
  1.4500500e-002  1.1127000e-001  3.9425200e-002
  3.8762800e-002  1.0462000e-001  2.6268300e-002
 -9.2401200e-002  1.2556400e-001  3.0262000e-002
 -3.7450100e-002  1.2774800e-001  3.1441000e-003
  4.5066100e-002  7.6193700e-002  2.2871100e-002
  3.6520800e-002  7.1342400e-002  3.6933000e-002
 -4.5492700e-002  7.4751500e-002  4.2164800e-002
 -6.5558100e-002  1.3538400e-001  4.2110400e-002
  3.1329400e-002  1.1871400e-001  1.2706500e-002
  5.5041100e-003  7.3103600e-002  5.6484500e-002
 -8.6641900e-002  9.2395200e-002  2.6600500e-002
 -6.6407200e-002  1.6988300e-001 -3.6416500e-002
 -5.1102300e-002  1.4162800e-001  1.8382000e-002
  2.5070400e-002  1.2404000e-001  1.1788000e-002
 -3.0874700e-002  5.6662000e-002 -1.6386400e-002
 -5.3496800e-002  7.9091100e-002  4.3863700e-002
 -1.0805700e-002  3.4294700e-002 -2.5596900e-002
 -9.0268900e-002  1.1279100e-001  1.8200600e-002
 -6.1829900e-002  9.3936600e-002 -1.8941300e-002
  2.9326700e-002  1.2037600e-001  7.6742800e-003
 -7.7501700e-002  1.4842800e-001  3.9927000e-002
 -6.2475400e-002  1.6309700e-001 -4.7591200e-002
 -7.4253300e-002  1.7954000e-001 -4.9342500e-002
 -4.9213500e-002  1.4015100e-001  8.3968800e-003
 -5.5199800e-003  7.3242400e-002  5.8473400e-002
  2.0301500e-002  1.2696400e-001  1.2870800e-002
  2.7565600e-002  5.6364200e-002  4.1461900e-002
  4.2393300e-002  9.0163500e-002 -6.8234600e-003
 -6.9005300e-002  1.6096700e-001 -5.1959400e-002
 -4.5459500e-002  8.4698300e-002  4.4092900e-002
 -4.8284200e-002  1.6408800e-001 -5.8362800e-003
 -8.7025100e-002  1.3634600e-001  3.2151600e-003
 -1.4494100e-002  1.2232500e-001  3.3097000e-002
  1.5525000e-002  1.2793200e-001  1.1516300e-003
  2.6631300e-002  5.6397200e-002 -2.0783200e-002
  3.7955200e-002  5.8893900e-002 -7.7365800e-003
 -4.1087900e-002  1.2806000e-001  3.4188300e-004
 -2.8137700e-002  1.7123100e-001 -9.2420800e-003
 -3.9497200e-002  6.4880300e-002  4.1658300e-002
 -2.3779700e-002  1.2553800e-001  1.8441300e-002
 -5.3039200e-002  1.4624800e-001  2.1397000e-002
  3.9021300e-002  1.0062800e-001  2.8494400e-002
 -3.2734000e-002  1.2043600e-001 -9.3525700e-003
  1.5010100e-003  6.4798600e-002  5.6667300e-002
  3.2291200e-002  1.1717400e-001  4.5004800e-003
 -3.4942200e-003  7.1833600e-002  5.8176600e-002
 -4.9912600e-002  5.1514100e-002  1.6649900e-002
 -4.2823600e-002  9.1384100e-002 -2.2768200e-002
 -8.9639000e-002  9.8355900e-002  1.6401400e-002
  3.5880700e-002  8.1228200e-002 -1.6692300e-002
 -6.3898800e-002  1.0958200e-001 -1.4439900e-002
 -1.5714600e-002  1.7719000e-001 -1.9376700e-002
  2.6233400e-002  1.2110100e-001  8.2963300e-004
  1.5018800e-003  9.3874100e-002  5.5019100e-002
 -5.9212500e-002  4.2121000e-002  4.4570800e-002
 -2.0970700e-003  1.3074500e-001  2.0391700e-002
  4.1518100e-002  4.8438500e-002  3.2146300e-002
 -2.1854900e-002  1.1802200e-001 -1.2920300e-002
  5.4754800e-003  1.1275700e-001  4.1009500e-002
 -4.5655600e-002  1.2609600e-001 -7.2972800e-003
  1.1644300e-002  1.2984600e-001  2.1096600e-002
  6.0349400e-002  6.0912100e-002  1.7185700e-002
  3.2392600e-002  1.1726200e-001  1.7390700e-002
  2.1814200e-002  1.1736800e-001 -1.0500400e-002
 -6.5480100e-002  6.7538800e-002  3.3032600e-002
  3.9426100e-002  7.1643300e-002 -1.0792700e-002
  2.2420200e-002  4.3039200e-002 -1.2730100e-002
 -8.9161000e-002  1.3787700e-001  2.5193700e-002
 -2.9012600e-002  6.0687200e-002 -2.4421300e-002
 -2.4013500e-003  1.2853700e-001  2.7551300e-002
 -7.0898300e-002  1.2089300e-001 -8.6519500e-003
  4.1315400e-002  4.5194800e-002  2.9602200e-002
 -2.3959900e-002  1.8299100e-001 -1.7065800e-002
 -2.1504300e-002  1.0992800e-001  4.0361500e-002
 -8.5317200e-002  1.1038200e-001  2.3355500e-002
 -1.7482500e-002  1.0714800e-001  4.2009200e-002
 -7.2667300e-002  1.5543700e-001 -3.3910600e-002
 -6.4559000e-002  1.1407000e-001  4.1766600e-002
 -6.3019100e-002  1.6937400e-001 -4.7603800e-002
  5.4849800e-003  5.9085600e-002  5.4559300e-002
 -7.3806800e-002  8.9283600e-002 -1.5191300e-002
 -6.2391800e-002  1.5215800e-001 -2.6581000e-002
  5.7280100e-002  6.0815200e-002  2.4710800e-002
 -3.1499300e-002  1.1660900e-001  3.2234400e-002
 -5.4932000e-003  1.1140500e-001  4.2286100e-002
 -5.1768800e-002  6.1226500e-002  3.0932000e-002
 -7.4567800e-002  1.5593100e-001  2.2959000e-002
  5.8076200e-002  6.4872400e-002  3.1458800e-003
  3.1873300e-002  1.1664000e-001  2.4321800e-002
  5.0826400e-003  1.2873100e-001  2.7324900e-002
 -5.2462000e-002  6.4231300e-002  3.3635100e-002
 -2.5875800e-002  5.7818700e-002  3.9173700e-002
 -6.6165800e-002  1.7096700e-001 -5.9060400e-002
 -4.2728100e-002  4.7838100e-002 -1.1277300e-002
 -7.1801800e-002  1.5819500e-001 -3.9921300e-002
 -4.5143700e-002  1.6213400e-001 -8.7990700e-003
  1.9491600e-002  1.1117900e-001  3.8008700e-002
 -2.4217700e-002  3.8767100e-002  5.4248400e-002
 -8.5077100e-003  4.5764600e-002  4.7699000e-002
  3.1612600e-002  1.0475900e-001  3.5350900e-002
 -1.4496600e-002  4.8598800e-002  4.7880400e-002
  3.6964300e-002  4.0554900e-002 -1.5878900e-003
 -5.8078700e-002  1.3398800e-001 -6.0002200e-003
 -6.2972400e-002  1.3389700e-001  3.8809000e-002
 -1.2488800e-002  1.2619100e-001  2.8306700e-002
 -2.9517300e-002  1.7573800e-001 -5.2542000e-003
 -7.5618900e-002  1.6838200e-001 -2.6935400e-002
 -6.5833500e-002  8.8111700e-002 -1.8453700e-002
 -5.8107400e-002  4.9457200e-002  3.6649700e-003
 -6.3576800e-002  1.5562800e-001  2.5379400e-002
 -1.0490900e-002  1.0443700e-001  4.3553300e-002
  5.9911100e-002  6.9205700e-002  1.5197200e-002
  5.6979900e-002  5.3869400e-002  2.2489300e-002
  1.5930400e-003  1.3111800e-001  4.5496600e-003
 -6.7343600e-002  1.5516900e-001  2.8416400e-002
 -7.2065100e-002  1.7338400e-001 -3.8531100e-002
 -2.4927800e-003  1.2106400e-001  3.7001300e-002
  5.4807400e-003  1.1137600e-001  4.1403800e-002
  1.4312500e-002  1.2960100e-001  1.3547700e-002
  2.1964000e-002  4.0202200e-002 -8.7061200e-003
 -7.6928000e-002  1.5280600e-001 -7.8898400e-003
 -8.3956100e-002  1.4460200e-001  4.1597300e-003
 -6.2217900e-002  1.5369600e-001 -2.9593600e-002
 -5.8492300e-002  8.1891100e-002  4.3717000e-002
 -8.5805300e-002  9.5356400e-002 -5.7296400e-004
 -8.6774700e-002  9.8140400e-002  2.4092000e-003
 -6.4872300e-003  1.1413800e-001  4.0862000e-002
  4.4269200e-002  9.7357900e-002  8.1648600e-003
  2.1068100e-002  4.1543700e-002 -1.5699900e-002
 -7.3512300e-002  1.4280600e-001  4.6046400e-002
  1.3984000e-002  1.2960100e-001  1.7668600e-002
 -7.1242400e-002  1.5568400e-001  3.7391700e-003
 -6.4690800e-002  1.6641100e-001 -3.0066500e-002
 -2.2074500e-002  1.6976300e-001 -1.2797700e-002
 -8.5824600e-002  1.1164500e-001  4.2916300e-003
  3.5161900e-003  8.0029600e-002  5.6385000e-002
 -5.5063500e-002  1.1691400e-001  3.6091000e-002
 -6.3140200e-002  1.5835200e-001 -4.2598400e-002
 -5.9124100e-002  1.1540000e-001  3.7196300e-002
  1.6897300e-002  5.0472100e-002  4.5310800e-002
 -1.9062300e-002  1.2750300e-001  5.5450900e-003
 -4.7565300e-002  1.6696200e-001 -4.9246300e-003
 -1.0529700e-002  5.6062200e-002  5.2751700e-002
 -8.3528700e-002  1.1032000e-001  2.7366000e-002
  4.4221200e-002  8.0437400e-002  2.5206700e-002
  1.2125000e-002  1.0869000e-001 -1.9001700e-002
 -8.5285800e-002  8.4512600e-002 -5.1537400e-004
 -6.2412700e-002  1.5063700e-001 -1.7576300e-002
  1.1471900e-002  1.1820000e-001  3.6571900e-002
 -2.9496200e-002  1.0704100e-001  3.9812900e-002
 -6.8136300e-002  1.2284500e-001  5.2447400e-002
 -4.8137800e-002  6.7205700e-002  3.8653100e-002
 -4.9936700e-004  4.5680200e-002  4.7038900e-002
 -1.1695400e-002  1.7568800e-001 -2.2329300e-002
 -4.4834800e-002  9.4210100e-002 -2.2031600e-002
  2.1579100e-002  1.2044400e-001  3.1936800e-002
 -5.7507500e-002  4.3550400e-002  1.6032100e-002
 -7.4396500e-002  1.4989200e-001 -3.1095900e-002
 -4.1026700e-002  1.7257100e-001 -2.8224300e-003
  4.6186700e-002  8.0634100e-002  6.1837300e-003
 -2.4810800e-002  6.4983000e-002  4.2132700e-002
 -3.2859600e-002  1.5363300e-001 -3.4422900e-004
 -2.8942100e-002  8.4869500e-002  4.5639200e-002
 -7.4976300e-002  1.5273900e-001 -1.6900500e-002
 -9.2793100e-002  1.2693700e-001  2.8266800e-002
  3.1018100e-002  1.1272600e-001  3.0961900e-002
 -1.0657700e-002  1.6541800e-001 -1.9810600e-002
 -8.9329800e-002  9.6955500e-002  1.0416900e-002
 -8.1437600e-002  9.7818500e-002 -6.6258300e-003
 -4.4869800e-002  1.0423200e-001 -2.0918800e-002
 -7.2888900e-002  1.5962800e-001 -3.5930800e-002
 -4.0804400e-002  8.8494700e-002 -2.2478900e-002
 -1.8992400e-002  1.2788400e-001  1.5741500e-002
 -4.8368200e-003  9.1012100e-002 -3.5647000e-002
 -3.8493400e-002  1.0560400e-001  3.8651100e-002
 -4.4485800e-002  9.1688000e-002  4.3029500e-002
 -6.0123500e-002  4.4743700e-002  4.2568400e-002
 -8.0466200e-002  8.0042200e-002 -5.5537400e-003
 -5.0488600e-002  9.4620500e-002  4.4536300e-002
  3.8721800e-002  9.9339200e-002  2.9782400e-002
 -8.4372600e-002  9.5258200e-002 -3.5711300e-003
 -9.2470400e-002  1.1746100e-001  3.3305000e-002
  1.5131200e-003  8.1484000e-002  5.7222400e-002
 -4.3775700e-002  1.2944000e-001  6.6621000e-003
 -5.1525900e-002  4.3956400e-002  4.4516500e-002
  4.5804400e-002  8.3413900e-002  1.6171300e-002
  1.1854100e-002  4.0481400e-002  4.4915800e-002
 -3.8485900e-002  5.2006200e-002  3.9208900e-002
  4.2750200e-002  8.3224700e-002  2.8467100e-002
 -6.9677900e-002  8.6056000e-002  4.2334500e-002
 -8.6256500e-002  8.4680200e-002  2.1475400e-002
 -7.2408900e-002  1.5598600e-001  1.0607200e-002
 -8.1276900e-002  1.3621300e-001 -2.7675700e-003
  5.6836400e-002  7.2347700e-002  1.6027000e-002
 -9.1291800e-002  1.1477000e-001  3.5324300e-002
 -4.7956300e-002  6.9932100e-002  4.0005300e-002
  4.6367900e-002  7.9255600e-002  8.1871000e-003
 -4.0496700e-002  7.1918000e-002  4.1952800e-002
  2.3142600e-002  7.6860300e-002  4.9319500e-002
 -3.4505800e-002  7.0486300e-002  4.1535600e-002
 -1.5496500e-002  5.7357100e-002  5.1379200e-002
 -8.7112900e-002  1.5283600e-001  1.5759300e-002
 -5.3804700e-002  8.8410800e-002 -2.2116000e-002
 -4.4950700e-002  1.5793400e-001  6.8328100e-003
 -4.5979400e-002  1.6736300e-001  2.5913600e-003
  2.8312800e-002  7.5454200e-002  4.4477200e-002
 -5.2449700e-002  1.4008500e-001  2.3410300e-002
  3.1784900e-002  4.9044700e-002  3.3388800e-002
 -8.9317100e-002  9.9695700e-002  1.7394100e-002
 -6.9042500e-002  3.8232500e-002  1.0739600e-002
 -5.3278100e-002  4.7679400e-002  2.4652400e-002
 -8.2407100e-002  1.3620900e-001 -1.7030000e-003
 -9.0472000e-003  1.2920900e-001  2.3682700e-002
 -5.1296900e-002  5.5682800e-002  1.5037700e-002
 -3.6512600e-002  7.7567000e-002  4.2130600e-002
 -5.7987200e-002  5.7680900e-002  6.6270500e-003
 -8.0785300e-002  8.1755600e-002  3.2375100e-002
 -5.2855400e-002  1.1687200e-001  3.3989300e-002
 -8.9898100e-002  1.3518500e-001  3.6208700e-002
 -2.3381800e-002  1.7717100e-001 -1.2878400e-002
 -7.6855100e-003  1.3029700e-001  1.8370200e-002
 -5.0994600e-002  5.4717200e-002  1.9151500e-002
 -2.9783400e-002  1.2196900e-001 -6.9874000e-003
 -8.4915900e-002  1.2354600e-001 -3.3355500e-003
 -6.5986800e-002  4.1809800e-002 -4.3073200e-003
 -5.7495300e-002  1.5370900e-001  2.9019100e-002
  1.0488300e-002  9.3668800e-002  5.2100300e-002
 -8.1506600e-002  9.8024500e-002  3.2594000e-002
 -4.2177800e-002  1.5066900e-001  5.5066200e-003
 -4.8746200e-002  1.1834400e-001  3.1163000e-002
 -6.6507700e-002  1.0560500e-001  3.9214500e-002
 -7.5617100e-002  1.7247300e-001 -3.6984600e-002
 -4.3232900e-002  1.5656500e-001  5.8607700e-003
 -9.2565700e-002  1.1600800e-001  1.2318300e-002
 -8.4423200e-002  1.0069800e-001 -1.5674300e-003
 -6.4277500e-002  3.5678500e-002  1.7344600e-002
 -7.8618500e-002  1.5269500e-001  3.1995300e-002
 -8.6324000e-002  1.0628300e-001  7.3644000e-003
 -8.7719200e-002  1.0100000e-001  2.2377600e-002
  3.4649600e-002  9.7210200e-002 -1.2919600e-002
 -5.0686400e-002  1.3701400e-001  1.4159100e-003
 -1.7138700e-002  1.7125900e-001 -1.6201700e-002
  5.2544400e-002  7.2833500e-002  8.4802700e-003
  8.9435700e-003  8.1940400e-002  5.5143800e-002
 -2.7363200e-002  5.3470500e-002 -2.5408500e-002
  3.4215200e-002  8.6262900e-002  4.0786400e-002
 -8.9122400e-002  1.3362700e-001  4.2309500e-003
 -4.4068600e-002  3.6409600e-002  4.4475400e-002
 -9.4830300e-003  7.0323300e-002  5.6158500e-002
  3.3519300e-002  1.1401400e-001 -8.4396800e-004
 -4.9773700e-004  1.1557000e-001  4.0782300e-002
 -6.6033300e-002  1.5520200e-001 -4.5855200e-003
 -3.9380200e-002  1.4952500e-001  1.3758900e-003
 -4.5883800e-002  1.2967100e-001  2.9355500e-003
 -2.9213600e-002  7.1930000e-002 -3.2514000e-002
 -4.1426400e-002  1.2509300e-001 -8.2698200e-003
  1.9960800e-002  1.2618600e-001  2.7761200e-003
  1.4928100e-003  1.1142600e-001  4.2409500e-002
  5.8071900e-002  5.2389300e-002  1.5182000e-002
 -5.3494800e-002  1.1254000e-001  3.5825600e-002
  4.0694600e-002  6.4733100e-002 -5.7816400e-003
 -1.2762200e-003  1.2744200e-001  2.9403000e-002
 -3.5119800e-002  4.8427700e-002 -1.7328100e-002
 -3.9492300e-002  7.4754000e-002  4.2367000e-002
 -8.9121800e-002  1.3656800e-001  3.9191400e-002
 -7.6484300e-002  1.4560700e-001  4.3552900e-002
 -9.0689300e-002  1.1752000e-001  4.3925200e-002
 -8.0293900e-002  7.3278900e-002  2.5041300e-003
 -9.2367300e-002  1.2420200e-001  4.1188000e-002
 -3.4923600e-002  1.2660300e-001  1.1375000e-003
  2.5059400e-002  1.2294600e-001  2.3196200e-002
 -2.9924100e-002  1.7272700e-001 -6.5224300e-003
  4.6117700e-002  5.1156900e-002  3.1354400e-002
 -7.1810800e-002  9.5541400e-002  4.1326900e-002
  3.4948500e-002  9.4216300e-002  3.8406200e-002
 -6.9234700e-002  1.7650500e-001 -5.7035100e-002
 -1.2169900e-002  1.6548100e-001 -1.4242800e-002
 -4.5051400e-003  6.4763100e-002  5.6369700e-002
  3.1759400e-002  8.3569100e-002  4.2488500e-002
 -5.5289300e-002  1.6093300e-001  3.2841100e-003
 -9.3120300e-002  1.2150300e-001  4.0399700e-002
 -7.4609400e-002  1.4858000e-001 -1.8863100e-002
 -9.0383200e-002  1.3241300e-001  3.1223200e-002
  2.5352900e-002  5.2014300e-002  3.9962900e-002
 -2.7679100e-002  1.2390000e-001  1.9992000e-002
  3.8043200e-002  1.0970200e-001  1.6604100e-002
 -1.4348100e-002  1.2914700e-001  1.1615300e-002
 -6.6256800e-002  1.1718300e-001  4.9875600e-002
 -1.2676300e-002  5.8240000e-002  5.2838000e-002
 -2.4010400e-002  1.0983700e-001 -2.0314800e-002
 -3.2514600e-002  1.1254400e-001  3.5344300e-002
 -7.2780800e-002  1.6102500e-001 -3.7939900e-002
  3.9008100e-002  1.0553900e-001  1.6127600e-004
 -4.5482400e-002  9.5940900e-002  4.3174400e-002
 -7.3245000e-002  1.5264600e-001 -3.4894900e-002
 -6.1843600e-002  1.2970300e-001  4.0432500e-002
 -8.0262600e-002  1.4741300e-001  3.9707900e-002
 -7.2172500e-002  1.5626500e-001  1.3598400e-002
 -4.9905300e-002  1.4168100e-001  1.3398900e-002
 -8.7544200e-002  1.1045000e-001  1.3340300e-002
 -6.1938800e-002  6.4777200e-002  3.0909200e-002
 -2.3010600e-002  5.8018200e-002  4.3383900e-002
 -1.9302700e-002  4.4553400e-002  5.2562400e-002
 -8.9498500e-002  1.2127600e-001  3.3035800e-003
  1.1666800e-002  5.4895100e-002  5.1858900e-002
  7.5074000e-003  7.0264500e-002  5.5750600e-002
 -6.9748900e-002  1.7084000e-001 -5.3032700e-002
 -7.2824000e-002  9.3630600e-002 -1.5090700e-002
 -8.5476500e-002  1.4599100e-001  3.6491900e-002
  2.2043600e-002  1.2593200e-001  1.6367600e-002
  4.9245600e-002  7.2812100e-002  1.7606400e-002
 -1.8496300e-002  4.8616700e-002  4.8230400e-002
 -7.1864700e-002  1.7527500e-001 -4.2717300e-002
 -8.2551500e-002  7.4868200e-002  7.5294900e-003
 -2.2076300e-002  6.6676500e-002  4.7815100e-002
  3.1409500e-002  6.9543700e-002 -1.8777900e-002
  1.3718400e-002  6.9942400e-002  5.3193100e-002
 -6.5501400e-002  9.5891100e-002  4.2495700e-002
 -4.4952100e-003  9.2560300e-002  5.6144400e-002
  3.5673300e-002  1.0734600e-001  2.8881000e-002
  4.7538900e-002  4.8260400e-002  2.8094900e-002
  8.4996000e-003  4.8821300e-002  5.0060800e-002
  2.9314100e-002  9.5566000e-002  4.2539500e-002
 -2.4645500e-002  1.2641800e-001  1.2252000e-002
 -3.3509300e-002  6.7603500e-002  4.0639900e-002
  2.4812600e-002  6.7236400e-002  4.4606700e-002
 -2.3307000e-004  9.8881100e-002  5.1001600e-002
 -7.5574500e-002  7.0208100e-002 -4.6522600e-004
  3.3028400e-002  1.1617400e-001  2.0489500e-002
  2.1667300e-002  1.2583400e-001  2.0504800e-002
 -5.0156300e-002  1.1976000e-001  3.2673200e-002
 -4.0053000e-003  1.2719500e-001  2.9861600e-002
  3.3630400e-002  1.1602900e-001  1.2142800e-002
 -5.3409400e-002  1.5087800e-001  2.3409300e-002
 -8.2411800e-002  7.8895100e-002 -4.9410800e-004
 -6.3591500e-002  1.5525000e-001 -1.0940100e-002
 -9.2892400e-002  1.2288500e-001  3.6269900e-002
  3.2428000e-002  6.2579800e-002 -1.7772500e-002
 -7.2877900e-002  1.1794300e-001 -7.8804100e-003
 -6.4902400e-002  1.1945400e-001 -8.8163100e-003
 -8.3194300e-002  1.3262600e-001  5.0147200e-002
 -3.4974800e-003  8.7038200e-002  5.7045300e-002
 -6.9495600e-002  9.5858300e-002  4.2089400e-002
 -3.2617200e-003  9.9438300e-002  4.9951600e-002
 -6.6954600e-002  1.2823700e-001 -8.9573100e-003
 -6.8126100e-002  1.5638000e-001  1.9391200e-002
 -1.4451900e-002  1.6692200e-001 -1.4056900e-002
 -7.2511700e-002  1.6367400e-001 -1.4076000e-002
  4.6379600e-002  7.9254300e-002  1.3174900e-002
 -3.1476900e-002  1.2232300e-001  2.4544000e-002
 -1.7494700e-002  8.1525700e-002  5.7629600e-002
  3.5345300e-002  8.3512800e-002  3.8859800e-002
  2.2604900e-002  9.9488700e-002  4.5147700e-002
 -5.5563400e-002  3.8637700e-002  4.7144300e-002
 -5.5499700e-002  1.0844300e-001  3.8972200e-002
 -7.2893000e-002  1.5263400e-001 -3.6896300e-002
 -5.6169700e-002  6.8476200e-002  3.7712900e-002
 -3.3795500e-002  8.0816400e-002 -2.5527600e-002
 -7.5510800e-002  1.2601100e-001  5.2924100e-002
 -3.5007400e-003  7.6065800e-002  5.8799700e-002
 -1.8135800e-002  1.5966900e-001 -7.0436500e-003
 -6.6820900e-002  3.6036000e-002  3.3912600e-002
  2.6400700e-002  1.1669300e-001  3.1316900e-002
  2.4135600e-002  6.3215200e-002  4.5353400e-002
  1.3929000e-002  3.9200100e-002  4.4415800e-002
  1.0228400e-002  6.1688700e-002  5.3355100e-002
  2.2487700e-002  9.6164300e-002  4.6634200e-002
 -2.6274500e-002  6.9222700e-002  4.2044900e-002
 -8.6583000e-002  1.0770000e-001  1.5354300e-002
 -5.5692400e-002  1.5944800e-001  6.4847600e-003
 -3.2738900e-002  4.8289600e-002 -2.1336800e-002
 -6.2180300e-002  1.6157500e-001 -2.7587000e-002
  4.0393600e-002  6.2992500e-002  3.0149300e-002
 -8.8748200e-002  1.0236300e-001  1.6379400e-002
 -5.3490900e-002  1.0151700e-001  4.1994900e-002
 -6.2358100e-002  1.6469200e-001 -4.2593100e-002
  1.4411000e-002  8.3373300e-002  5.2545300e-002
 -4.7257800e-002  1.2111300e-001  2.8008500e-002
 -2.5269500e-002  1.5663300e-001 -3.3693100e-003
 -8.6077700e-002  1.1035500e-001  7.3524900e-003
 -4.2500200e-002  1.1526600e-001  3.3647400e-002
 -3.2485200e-002  9.4624900e-002  4.4527700e-002
 -3.2614100e-002  6.3833200e-002 -1.7450900e-002
  1.4989500e-003  5.1934200e-002  5.2911100e-002
 -7.9504000e-002  1.2885900e-001  5.3141000e-002
  5.4903600e-002  5.0666700e-002  3.1983100e-003
 -2.8893800e-002  1.8078500e-001 -9.8249100e-003
 -1.4463300e-002  5.1615000e-002  4.9513300e-002
 -3.1501100e-002  1.0156700e-001  4.2634600e-002
 -6.7684400e-002  1.6092200e-001 -5.5994200e-002
 -5.7508600e-002  5.0793900e-002  4.6630600e-003
 -7.0657800e-002  1.0688000e-001  3.7341700e-002
 -5.1093600e-002  1.5610100e-001 -4.8567700e-003
  2.3940300e-002  1.2482100e-001  1.2788200e-002
  4.1447200e-002  9.7198500e-002  2.6159700e-002
 -1.8339600e-002  1.8300400e-001 -2.4094600e-002
 -1.5491100e-002  7.0218100e-002  5.4969000e-002
  2.4103500e-002  1.2450000e-001  8.5821000e-003
 -6.8387200e-002  6.9031700e-002  3.2882100e-002
  3.1138200e-002  1.0080900e-001  3.8172400e-002
 -6.2338900e-002  1.6313900e-001 -3.2591300e-002
  2.3875200e-002  4.2186400e-002  3.9486900e-002
 -3.1496500e-002  7.6048300e-002  4.0909000e-002
  2.0917600e-002  1.2499700e-001  2.4511500e-002
 -7.0937800e-002  9.9536600e-002  4.0344700e-002
 -4.2883000e-003  9.9962600e-002 -2.3882200e-002
 -7.5691900e-002  1.4306700e-001 -5.8282700e-003
 -2.8115900e-003  1.3122700e-001  1.0080200e-002
  2.5096100e-003  1.0161700e-001  4.4438700e-002
  5.8925500e-002  5.8038300e-002  2.1169200e-002
 -5.8435500e-002  4.8211700e-002  6.7401800e-003
 -6.4514900e-002  1.5619100e-001  1.9219300e-002
  1.3471200e-002  9.3601400e-002  5.1128200e-002
 -6.4184800e-002  4.3208600e-002  3.1693400e-002
 -3.3433900e-002  1.6678200e-001 -4.6164400e-003
 -4.2505400e-002  7.0501300e-002  4.2015200e-002
 -7.9436400e-002  1.4480500e-001  4.3209800e-002
 -7.8672500e-002  1.5564000e-001  1.7156900e-002
  4.5271700e-002  9.0398700e-002  1.5160600e-002
 -4.8052900e-002  1.5019000e-001 -4.2011000e-003
 -6.1726100e-002  1.5841200e-001 -3.3594900e-002
 -2.4868500e-002  1.0443000e-001 -2.3185800e-002
  3.7476500e-002  9.6761900e-002  3.3256300e-002
 -7.0496700e-002  1.5676300e-001 -4.6916700e-002
 -6.0276100e-002  1.3954800e-001  3.3932100e-002
 -7.8782900e-002  9.2699700e-002  3.5689000e-002
 -2.8791300e-002  1.2129100e-001  2.5511000e-002
 -3.2836300e-002  9.5799600e-002 -2.3546900e-002
 -4.7065100e-002  1.5317900e-001 -6.0643600e-003
 -6.9513000e-002  1.7974000e-001 -5.1989100e-002
 -7.1797800e-002  1.5539800e-001 -4.0907600e-002
  1.3395500e-002  9.0075400e-002  5.2885800e-002
  4.1398600e-002  8.3057800e-002 -8.7738700e-003
  3.2056700e-002  1.0609900e-001  3.4228100e-002
 -6.3027400e-002  1.6629600e-001 -4.0584000e-002
 -7.8271500e-002  1.6866600e-001 -3.3361600e-002
  1.3184000e-002  7.4007300e-002  5.4230900e-002
  7.5059600e-003  6.7441300e-002  5.5134000e-002
 -2.6876200e-002  1.0443300e-001 -2.3103800e-002
  1.6317100e-002  6.8611600e-002  5.1685400e-002
 -4.2227200e-002  1.2774400e-001  1.6162400e-002
 -8.2131700e-002  1.5115600e-001  3.2384400e-002
 -5.1117300e-002  1.2830800e-001  3.3093500e-002
  3.1647100e-002  5.1260000e-002 -9.7240200e-003
  4.6705500e-002  7.3049800e-002  1.8129500e-002
 -1.1497600e-002  1.1691700e-001  3.8689000e-002
 -2.5129300e-003  1.0588200e-001  4.4136900e-002
 -8.8792300e-002  1.3780000e-001  1.1205700e-002
 -8.0139800e-002  1.5438700e-001  9.3574900e-003
 -2.4448900e-002  5.2187000e-002  4.1371400e-002
 -7.0684900e-002  8.1943400e-002  4.0637300e-002
 -4.1505000e-002  1.1936200e-001  2.9956900e-002
  6.0485600e-002  6.2317300e-002  8.1547300e-003
 -6.5509200e-002  9.8692600e-002  4.2018800e-002
  7.5498700e-003  1.0037100e-001  4.7277100e-002
 -4.3296300e-002  1.2884300e-001  1.4275100e-002
 -7.1875000e-002  1.3688600e-001  4.8857400e-002
 -8.9433100e-002  1.5011400e-001  1.2190200e-002
 -7.2321900e-002  1.7117800e-001 -3.1454300e-002
 -8.5329800e-002  1.1102300e-001  4.0555900e-002
  3.1825800e-002  9.0298000e-002  4.2641700e-002
 -4.9649800e-004  5.4907500e-002  5.4874700e-002
 -8.6773400e-002  1.2390900e-001 -1.7421900e-003
 -6.2007300e-002  1.5531300e-001 -1.7581900e-002
 -6.1144100e-002  1.6938100e-001 -5.7600900e-002
  2.0216900e-002  5.9190600e-002  4.8460500e-002
 -8.8934100e-002  9.2877300e-002  1.0447400e-002
 -5.3505600e-002  1.3670100e-001  2.9658900e-002
 -7.1532400e-002  1.4416500e-001  4.4620500e-002
 -4.0495800e-002  4.6491100e-002  4.0813600e-002
 -2.4232200e-002  1.2479400e-001 -7.0119900e-004
 -3.8479000e-002  9.4516900e-002  4.3190200e-002
 -8.6338400e-002  1.0217900e-001  4.4242500e-003
  5.5382100e-002  5.9068400e-002 -8.1651900e-004
  3.1015400e-002  1.1007500e-001  3.2724500e-002
 -9.1613600e-002  1.3231100e-001  1.1225600e-002
 -1.4885800e-002  9.8503400e-002  4.7376000e-002
 -3.9490700e-002  4.2299500e-002  4.1628700e-002
  4.4851300e-003  9.6478900e-002  5.2347200e-002
 -2.2374900e-003  9.3916500e-002 -3.3539100e-002
 -6.0304400e-002  1.5583700e-001  1.0568700e-002
  2.6924400e-002  1.1890300e-001  2.8181600e-002
 -2.4445200e-002  1.8183600e-001 -9.6114400e-003
 -5.3286100e-002  5.2791900e-002  1.1570400e-002
 -2.7857200e-002  9.7298400e-002 -2.3991500e-002
 -4.8508100e-002  5.0411800e-002  3.7253000e-002
 -5.2831500e-002  5.5837300e-002 -7.4200500e-003
  1.9033600e-002  1.1528000e-001  3.6477700e-002
  4.4996600e-002  9.3174900e-002  4.1816500e-003
 -6.1364600e-002  3.9426800e-002  4.3967100e-002
  8.4922100e-003  1.0849600e-001  4.0656800e-002
  3.8017600e-002  1.0122800e-001 -7.8663200e-003
 -6.7462700e-002  1.3829500e-001  4.4643800e-002
  4.3455400e-002  7.9003900e-002 -3.7781500e-003
 -4.9812200e-002  1.4167200e-001  4.3998700e-003
 -4.7812200e-002  1.3403100e-001  6.4047800e-003
 -7.8067200e-002  1.6110200e-001 -2.1932700e-002
  7.8258300e-003  1.3148700e-001  1.1134200e-002
 -2.7860400e-002  4.8767200e-002  4.7054300e-002
 -2.9494000e-002  6.3119400e-002  3.7781400e-002
  3.7936000e-002  9.0163900e-002  3.5657400e-002
  3.4193200e-002  1.1396200e-001  2.3770800e-002
 -3.8194300e-002  1.2473500e-001  2.3545400e-002
 -8.2898100e-002  1.0196900e-001  2.9630000e-002
 -6.4947800e-002  1.6418100e-001 -2.2982700e-002
 -2.0477800e-002  8.6949000e-002  5.5949300e-002
 -6.5464400e-002  1.4829200e-001  3.8816800e-002
