# .PCD v0.7 - Point Cloud Data file format
VERSION 0.7
FIELDS x y z
SIZE 4 4 4
TYPE F F F
COUNT 1 1 1
WIDTH 1416
HEIGHT 1
VIEWPOINT 0 0 0 1 0 0 0
POINTS 1416
DATA ascii
0.12889417 -0.12900038 2.7655947
0.12070914 -0.12887765 2.7629635
0.11254052 -0.1287538 2.7603083
0.10416166 -0.12834945 2.7516398
0.096287705 -0.12854931 2.755924
0.088133886 -0.12837552 2.7521987
0.079886325 -0.12801433 2.7444551
0.072050795 -0.12830409 2.7506673
0.064040281 -0.1283133 2.750865
0.05611058 -0.12850778 2.7550342
0.048069976 -0.12846826 2.7541869
0.040063836 -0.12852082 2.7553136
0.032132834 -0.12889844 2.7634091
0.024094084 -0.12894884 2.7644897
0.016020326 -0.12876518 2.7605524
0.0079812566 -0.12876682 2.7605875
-5.7775989e-005 -0.12853438 2.7556043
-0.0080852974 -0.12858042 2.7565913
-0.016036825 -0.12797306 2.7435706
-0.023807615 -0.12680553 2.7185402
-0.031630922 -0.12642905 2.7104688
-0.039421983 -0.1260981 2.7033737
-0.047171995 -0.12576611 2.6962564
-0.055003174 -0.1257126 2.6951091
-0.062921241 -0.12584436 2.6979339
-0.070856214 -0.12597503 2.7007353
-0.07889536 -0.12624434 2.7065091
-0.087096795 -0.12669881 2.7162523
-0.095355637 -0.12715214 2.725971
-0.10416358 -0.12820958 2.7486408
-0.11265627 -0.12875359 2.7603037
-0.12051951 -0.12855157 2.7559729
-0.12868431 -0.12867431 2.7586045
-0.13671708 -0.12865633 2.7582188
-0.14490579 -0.12877685 2.7608025
-0.15283439 -0.12866361 2.7583749
-0.16069189 -0.1285028 2.7549274
-0.16871384 -0.12848048 2.7544489
-0.17679833 -0.12850358 2.7549438
-0.18421835 -0.12806065 2.7454486
-0.19298017 -0.12854643 2.7558627
-0.20107737 -0.12856621 2.7562866
-0.20910311 -0.1285384 2.7556906
-0.21712705 -0.12850952 2.7550716
-0.22539333 -0.12861887 2.7574158
-0.23308513 -0.12840207 2.7527676
-0.24144919 -0.1285556 2.7560592
-0.2486634 -0.12810467 2.746392
-0.25684604 -0.12816322 2.7476473
-0.26599681 -0.12868442 2.758821
-0.27521482 -0.12920423 2.7699649
-0.28134853 -0.12828568 2.7502723
-0.2900883 -0.12857136 2.7563972
-0.29660973 -0.12788296 2.7416387
-0.30448207 -0.12779592 2.7397726
-0.31268573 -0.12784669 2.7408612
-0.32124665 -0.12803516 2.7449017
-0.32828668 -0.12762097 2.736022
-0.3386907 -0.12850086 2.7548859
-0.34696132 -0.12854688 2.7558722
-0.35562357 -0.12873037 2.7598062
-0.36261451 -0.12831207 2.750838
-0.37102398 -0.12840091 2.752743
-0.37835708 -0.12811927 2.7467051
-0.38691095 -0.12825201 2.7495508
-0.39591083 -0.12852187 2.7553365
-0.40335312 -0.12828326 2.750221
-0.41076902 -0.12804373 2.7450855
-0.41876122 -0.1279875 2.74388
-0.425982 -0.1277 2.7377164
-0.43442205 -0.1277798 2.7394271
-0.44287571 -0.12785836 2.7411115
-0.45101839 -0.12784377 2.7407985
-0.46015346 -0.12810379 2.7463729
-0.46730953 -0.12781121 2.7401006
-0.47409138 -0.12742595 2.7318416
-0.48360783 -0.12777415 2.739306
-0.48946446 -0.1271577 2.7260904
-0.49937442 -0.12759505 2.7354662
-0.5075205 -0.12757264 2.7349858
-0.51474243 -0.12732016 2.729573
-0.52438086 -0.12766172 2.7368958
-0.5313946 -0.12736142 2.7304575
-0.53914994 -0.12724315 2.727922
-0.54905713 -0.12762637 2.7361381
-0.55662388 -0.12746011 2.7325733
-0.56356788 -0.12715597 2.726053
-0.57417017 -0.1276719 2.7371137
-0.58109879 -0.12736565 2.7305484
-0.5879941 -0.12705861 2.7239659
-0.59763306 -0.12734252 2.7300527
-0.60558069 -0.12726098 2.7283044
-0.61549693 -0.12758751 2.7353046
-0.6243484 -0.12768526 2.7374003
-0.63074249 -0.12728231 2.7287614
-0.63959754 -0.12737775 2.7308078
-0.64639395 -0.12706383 2.7240777
-0.65362358 -0.12683976 2.719274
-0.66366631 -0.12715809 2.7260988
-0.67064571 -0.12688664 2.720279
-0.67977428 -0.12702127 2.723165
-0.68892539 -0.12715447 2.7260211
-0.69537544 -0.1267897 2.7182007
-0.70554179 -0.1271009 2.7248724
-0.71651256 -0.12754564 2.7344069
-0.7206319 -0.12677236 2.717829
-0.73164952 -0.12721424 2.7273021
-0.73985028 -0.12715949 2.7261286
-0.74805033 -0.12710361 2.7249308
-0.75678432 -0.12713638 2.7256334
-0.7660687 -0.12725759 2.7282317
-0.77237314 -0.12688427 2.720228
-0.78277248 -0.12718214 2.726614
-0.79015243 -0.126986 2.7224092
-0.8017332 -0.12745965 2.7325635
-0.80968732 -0.12735043 2.7302222
-0.81734776 -0.12719552 2.7269008
-0.82586455 -0.12717339 2.7264266
-0.83555508 -0.12732826 2.7297468
-0.84350085 -0.12721448 2.7273073
-0.85114145 -0.12705512 2.723891
-0.86057377 -0.12716143 2.7261698
-0.86911601 -0.12713303 2.7255614
-0.87858087 -0.12723647 2.7277789
-0.88775688 -0.12729409 2.7290144
-0.89757109 -0.12743887 2.7321179
-0.90615267 -0.12740512 2.7313948
-0.91568959 -0.12750269 2.7334867
-0.92236555 -0.12720148 2.7270286
-0.9341771 -0.12760511 2.735682
-0.94148856 -0.12738985 2.7310672
-0.94878107 -0.12717368 2.7264326
-0.95704782 -0.1270885 2.7246068
-0.96931785 -0.12752923 2.7340553
-0.97727561 -0.12739731 2.7312272
-0.98895752 -0.12774643 2.7387118
-0.99556053 -0.12743673 2.7320721
-1.0059258 -0.12760741 2.7357311
-1.0149308 -0.12760159 2.7356067
-1.0232432 -0.12750714 2.7335815
-1.0347289 -0.12780386 2.7399428
-1.0416365 -0.12753244 2.7341237
-1.0546116 -0.12799969 2.7441413
-1.0586261 -0.12737826 2.7308185
-1.0713037 -0.12779845 2.7398269
-1.0781783 -0.12752265 2.7339144
-1.0883505 -0.12763579 2.7363396
-1.1000338 -0.12792024 2.7424383
-1.1087646 -0.12785701 2.7410824
-1.1193836 -0.12800825 2.7443244
-1.1262306 -0.12772667 2.7382884
-1.1364962 -0.12783177 2.7405412
-1.1456283 -0.12780619 2.7399926
-1.1594238 -0.1282945 2.7504613
-1.1646932 -0.12783659 2.7406442
-1.1750299 -0.1279352 2.7427585
-1.1861811 -0.12811767 2.7466705
-1.1933769 -0.12787089 2.74138
-1.2041652 -0.12800731 2.7443047
-1.2153846 -0.12818453 2.7481041
-1.2254162 -0.12823208 2.7491233
-1.2330072 -0.12802294 2.7446396
-1.2447033 -0.12823737 2.7492366
-1.2527041 -0.12806812 2.7456081
-1.2627811 -0.12810948 2.7464952
-1.2741339 -0.12827608 2.7500668
-1.2846729 -0.1283562 2.7517843
-1.2914051 -0.12805502 2.7453277
-1.3041013 -0.12834269 2.7514946
-1.3159833 -0.12854388 2.7558081
-1.3274682 -0.12870094 2.7591751
-1.3328828 -0.12826884 2.7499115
-1.3470228 -0.12867394 2.7585962
-1.3568145 -0.1286581 2.7582567
-1.3635101 -0.12834838 2.7516167
-1.3741947 -0.12841322 2.7530067
-1.3857967 -0.12855951 2.7561431
-1.3974284 -0.12870374 2.7592354
-1.4059116 -0.12855531 2.756053
-1.418041 -0.12873729 2.7599547
-1.4260722 -0.12854454 2.7558222
-1.4396328 -0.12884666 2.7622993
-1.4444203 -0.12836212 2.7519114
-1.4598989 -0.12882505 2.7618363
-1.4712219 -0.12891461 2.763756
-1.479264 -0.12871467 2.7594693
-1.4944131 -0.1291288 2.7683477
-1.5015141 -0.1288438 2.762238
-1.5129098 -0.12892592 2.7639983
-1.5243285 -0.12900603 2.7657161
-1.5391638 -0.12936939 2.7735062
-1.5452845 -0.1289975 2.765533
-1.5592105 -0.12927493 2.771481
-1.5712143 -0.12938748 2.7738936
-1.5797805 -0.12921447 2.7701843
-1.588836 -0.12908062 2.7673151
-1.6023883 -0.1293086 2.7722025
-1.6114595 -0.12917142 2.7692618
-1.6250726 -0.12939481 2.774051
-1.6361896 -0.12941489 2.7744815
-1.6452824 -0.12927273 2.7714336
-1.6589844 -0.12948927 2.7760758
-1.6701518 -0.12950349 2.7763808
-1.6782299 -0.12927657 2.7715161
-1.6920143 -0.12948634 2.7760131
-1.7016587 -0.12937564 2.7736399
-1.7155037 -0.12958068 2.7780354
-1.7293887 -0.12978303 2.7823739
-1.7396036 -0.12970614 2.7807252
-1.7487589 -0.12954868 2.7773499
-1.762723 -0.12974419 2.7815409
-1.7702783 -0.12946543 2.7755644
-1.7842911 -0.12965639 2.7796588
-1.7961738 -0.12968805 2.7803373
-1.8075308 -0.1296785 2.7801328
-1.8260142 -0.13017401 2.7907557
-1.8352325 -0.13000381 2.7871072
-1.8449969 -0.12987109 2.7842615
-1.8591955 -0.13004702 2.7880335
-1.8700907 -0.12998798 2.7867677
-1.8821126 -0.13000436 2.7871189
-1.896399 -0.13017279 2.7907295
-1.9101582 -0.13029996 2.7934558
-1.9250822 -0.13050129 2.7977719
-1.9320837 -0.13016316 2.7905233
-1.9476277 -0.13039792 2.7955561
-1.9592021 -0.13036238 2.7947943
-1.9730924 -0.13047718 2.7972553
-1.9818082 -0.13024721 2.792325
-2.0015459 -0.13073668 2.8028188
-2.0149474 -0.13080552 2.8042943
-2.0260327 -0.13072073 2.8024769
-2.0383 -0.13070944 2.8022346
-2.0505826 -0.13069592 2.8019447
-2.0652511 -0.1308303 2.804826
-2.0799539 -0.13096182 2.8076456
-2.0946901 -0.13109046 2.8104033
-2.0992684 -0.13058224 2.7995079
-2.1182451 -0.13096695 2.8077557
-2.134871 -0.13119909 2.8127325
-2.149724 -0.13131671 2.8152537
-2.1615663 -0.13124657 2.81375
-2.1758618 -0.13132185 2.8153641
-2.1901853 -0.13139437 2.8169188
-2.2051516 -0.13150084 2.8192012
-2.2232397 -0.13178751 2.8253472
-2.2358 -0.13174145 2.8243597
-2.2465055 -0.13158371 2.8209779
-2.2697065 -0.13215178 2.8331566
-2.282337 -0.13209765 2.831996
-2.3037908 -0.13254814 2.8416541
-2.3133194 -0.13230757 2.8364966
-2.3367825 -0.13285838 2.8483052
-2.3507919 -0.13286467 2.8484399
-2.3648219 -0.13286828 2.8485172
-2.3775914 -0.13279764 2.847003
-2.3923004 -0.13283174 2.8477342
-2.400583 -0.13250692 2.8407705
-2.4243796 -0.13303341 2.8520577
-2.4391696 -0.13305855 2.8525965
-2.4552865 -0.13315147 2.8545885
-2.4727437 -0.13331166 2.8580229
-2.4823682 -0.13304627 2.8523333
-2.5005381 -0.13323538 2.8563874
-2.5154502 -0.13324574 2.8566096
-2.5283971 -0.13314852 2.8545251
-2.5513248 -0.13357098 2.8635824
-2.5616543 -0.13332877 2.8583894
-2.5820122 -0.13360424 2.8642955
-2.6037686 -0.13394439 2.871588
-2.6181812 -0.13390091 2.8706555
-2.6326103 -0.13385464 2.8696635
-2.6457002 -0.13373707 2.8671432
-2.6669564 -0.13402709 2.8733609
-2.680769 -0.13393767 2.8714433
-2.6966453 -0.13394755 2.8716557
-2.7049963 -0.1335815 2.8638077
-2.7202084 -0.13355227 2.8631811
-2.7285347 -0.133183 2.8552647
-2.75069 -0.13348481 2.8617351
-2.7659588 -0.13344657 2.8609152
-2.788214 -0.13373955 2.8671963
-2.8063354 -0.13382766 2.8690851
-2.8329031 -0.13431077 2.8794422
-2.8440883 -0.13405876 2.8740399
-2.8665473 -0.13433354 2.8799307
-2.8805788 -0.13420801 2.8772395
-2.898165 -0.13424407 2.8780122
-2.9264486 -0.13476777 2.88924
-2.9412694 -0.13466448 2.8870254
-2.9568172 -0.13459085 2.885447
-2.9745328 -0.13461155 2.8858905
-3.0016279 -0.13504931 2.8952756
-3.0165389 -0.13493231 2.8927677
-3.0372481 -0.13506977 2.8957145
-3.0558233 -0.13510655 2.896503
-3.0773385 -0.13526732 2.8999496
-3.1076524 -0.13580589 2.9114959
-3.1183119 -0.13547944 2.9044971
-3.1428907 -0.1357531 2.9103639
-3.154294 -0.13545285 2.9039271
-3.1826446 -0.13587463 2.9129696
-3.1955492 -0.13563095 2.9077451
-3.2240167 -0.13604172 2.9165518
-3.2443869 -0.13610297 2.9178653
-3.2640471 -0.1361288 2.9184184
-3.2949433 -0.13661505 2.928843
-3.3049564 -0.13622962 2.9205801
-3.3262131 -0.1363042 2.922179
-3.3512707 -0.13652752 2.9269667
-3.3763843 -0.1367452 2.931633
-3.4007969 -0.13692674 2.9355254
-3.413882 -0.1366474 2.9295363
-3.4383678 -0.13681956 2.9332271
-3.4674778 -0.13716714 2.9406793
-3.4897823 -0.13723752 2.942188
-3.5082941 -0.13715327 2.9403818
-3.529897 -0.13718455 2.9410522
-3.556922 -0.1374193 2.9460852
-3.5770607 -0.13738117 2.9452674
-3.6034131 -0.13757497 2.9494224
-3.630595 -0.13779221 2.9540799
-3.6516171 -0.13776869 2.9535754
-3.6843514 -0.13817887 2.962369
-3.69999 -0.13794088 2.9572673
-3.7179778 -0.13778687 2.9539652
-3.7524509 -0.13823597 2.9635935
-3.7642102 -0.13784195 2.9551463
-3.7995932 -0.13830645 2.9651046
-3.8129506 -0.13796234 2.9577272
-3.829464 -0.13772966 2.9527388
-3.8674014 -0.13825947 2.9640975
-3.9006662 -0.13861063 2.9716258
-3.9284291 -0.1387569 2.9747615
-3.9530485 -0.13878465 2.9753561
-3.982507 -0.13897447 2.9794259
-4.0015945 -0.13879579 2.9755955
-4.0359669 -0.13913968 2.9829679
-4.0631657 -0.13922696 2.9848392
-4.095253 -0.13947302 2.9901142
-4.1233602 -0.13957463 2.9922924
-4.1539469 -0.13975161 2.9960866
-4.1813402 -0.13981283 2.9973989
-4.2104049 -0.13992189 2.9997373
-4.2378869 -0.13997036 3.0007765
-4.2686796 -0.14011991 3.0039828
-4.2913361 -0.13999504 3.0013056
-4.3131909 -0.13983861 2.997952
-4.3432879 -0.13994244 3.0001779
-4.3709621 -0.13996013 3.0005572
-4.4036293 -0.14012916 3.0041809
-4.4255981 -0.13995036 3.0003476
-4.448411 -0.13979283 2.9969704
-4.4911776 -0.14025289 3.0068336
-4.5348716 -0.14072837 3.0170269
-4.5594826 -0.14060169 3.0143116
-4.5999908 -0.14095601 3.0219073
-4.6280246 -0.14091818 3.0210965
-4.6468673 -0.14059481 3.0141637
-4.6917567 -0.14105062 3.0239358
-4.7468448 -0.14179723 3.039942
-4.7986913 -0.14242995 3.0535069
-4.8312221 -0.14247666 3.0545082
-4.8671856 -0.14261499 3.0574737
-4.9015107 -0.14269537 3.0591969
-4.9375863 -0.1428168 3.0618002
-4.9635043 -0.14263615 3.0579271
-4.9919996 -0.14252271 3.055495
-5.0358977 -0.14283884 3.0622728
-5.0952797 -0.14357829 3.0781255
-5.1282229 -0.14355896 3.0777111
-5.1706529 -0.14379458 3.0827627
-5.2036929 -0.14375854 3.0819898
-5.2453885 -0.14395119 3.0861199
-5.2880158 -0.14415729 3.0905383
-5.3289828 -0.14430621 3.0937312
-5.367415 -0.14437535 3.0952137
4.4510655 -0.10489605 2.5676818
4.4314666 -0.10513696 2.5735788
4.4179139 -0.10551839 2.5829158
4.4232998 -0.10635328 2.6033523
4.3864565 -0.10617019 2.5988705
4.321342 -0.10528886 2.5772972
4.1938162 -0.10285829 2.517801
4.1376953 -0.10215172 2.5005052
4.0765862 -0.10130533 2.4797869
4.0369492 -0.1009785 2.4717867
4.01016 -0.10096455 2.4714451
4.0012484 -0.10139722 2.4820364
3.9880691 -0.10172048 2.4899492
3.977417 -0.10210666 2.499402
3.9751933 -0.10270949 2.5141585
3.9712305 -0.10326879 2.5278492
3.959645 -0.10362973 2.5366843
3.9497221 -0.10403306 2.5465572
3.9397757 -0.10443491 2.5563939
3.8963218 -0.10394204 2.5443292
3.8496299 -0.10335002 2.5298376
3.7938828 -0.10249998 2.5090301
3.7599292 -0.10222593 2.5023217
3.7476442 -0.10253558 2.5099013
3.7477825 -0.10318557 2.5258119
3.7470322 -0.10381352 2.5411832
3.751179 -0.10458031 2.559953
3.7552478 -0.10534895 2.578768
3.7362096 -0.10546935 2.5817153
3.722111 -0.10572601 2.5879979
3.6654115 -0.10476277 2.5644193
3.6268656 -0.10430418 2.5531938
3.5908639 -0.10390815 2.5434997
3.5606487 -0.10367039 2.5376797
3.5313101 -0.10345013 2.5322881
3.5077083 -0.10339107 2.5308423
3.4849539 -0.10335127 2.5298681
3.4630423 -0.10333104 2.5293727
3.4564693 -0.10376599 2.5400195
3.4394135 -0.1038846 2.5429232
3.435204 -0.10439005 2.5552957
3.440556 -0.10518902 2.5748532
3.4306495 -0.10552341 2.5830383
3.4207242 -0.10585632 2.5911877
3.4075999 -0.10608876 2.5968773
3.3897114 -0.1061699 2.5988636
3.3678825 -0.10612296 2.5977147
3.3555667 -0.10637219 2.6038151
3.3377275 -0.10644346 2.6055603
3.326983 -0.10673845 2.6127806
3.3217154 -0.10720897 2.6242986
3.3171914 -0.10770459 2.6364303
3.2431343 -0.10593025 2.5929973
3.2098653 -0.10547024 2.5817368
3.1502666 -0.10412983 2.5489261
3.0932126 -0.10285352 2.5176837
3.0920575 -0.10342734 2.5317302
3.0869882 -0.10387193 2.5426133
3.0903497 -0.10460281 2.560504
3.0974722 -0.10546611 2.5816357
3.0930073 -0.10593839 2.5931966
3.0854445 -0.1063052 2.6021755
3.0580359 -0.1059842 2.5943182
3.0291786 -0.1056046 2.5850258
3.0117793 -0.10561803 2.5853548
2.9875939 -0.10538803 2.5797246
2.9702597 -0.1053942 2.5798755
2.9491858 -0.10526279 2.576659
2.9334121 -0.10531598 2.5779612
2.9221497 -0.10552861 2.5831659
2.9086404 -0.10565804 2.5863342
2.9003532 -0.10597574 2.5941107
2.8979907 -0.10651086 2.6072097
2.8911293 -0.10688192 2.6162925
2.8857176 -0.10730722 2.626703
2.8913291 -0.10814579 2.6472299
2.8755214 -0.10818435 2.6481736
2.8780661 -0.10891383 2.6660304
2.8710234 -0.10928294 2.6750658
2.8690581 -0.10984679 2.6888673
2.8670366 -0.11041108 2.7026803
2.862783 -0.11089154 2.7144411
2.8432941 -0.11078004 2.7117121
2.8332233 -0.11103236 2.7178886
2.8101926 -0.11077285 2.7115362
2.7929614 -0.11073634 2.7106423
2.772898 -0.11058258 2.7068784
2.7614393 -0.1107683 2.7114248
2.7371759 -0.11043574 2.7032843
2.7214935 -0.11044371 2.7034793
2.7044187 -0.11039117 2.702193
2.6993604 -0.11082761 2.7128766
2.6914506 -0.11114765 2.7207108
2.6814158 -0.11137941 2.7263837
2.6762621 -0.11181412 2.7370245
2.6592245 -0.11175078 2.7354743
2.6373565 -0.11147881 2.728817
2.6280155 -0.11173259 2.7350292
2.6110656 -0.11166032 2.7332599
2.5707445 -0.11057827 2.7067733
2.5230515 -0.109161 2.6720808
2.4817398 -0.1080013 2.6436934
2.4494805 -0.10722082 2.6245885
2.4397895 -0.10742141 2.6294985
2.4097586 -0.10672018 2.6123335
2.3940358 -0.10664472 2.6104863
2.3783445 -0.10656644 2.6085701
2.3693974 -0.10678788 2.6139905
2.3624463 -0.1070991 2.6216087
2.3588054 -0.10756164 2.632931
2.3458118 -0.10759732 2.6338046
2.3334956 -0.1076614 2.6353731
2.3304362 -0.10815258 2.6473961
2.3161361 -0.10812154 2.6466365
2.305141 -0.10824207 2.6495869
2.2954557 -0.10842267 2.6540077
2.2909775 -0.10884957 2.6644576
2.2884061 -0.10936946 2.6771832
2.2851329 -0.10985852 2.6891549
2.2772939 -0.11012939 2.695785
2.2636509 -0.1101179 2.6955042
2.2577155 -0.11048026 2.7043738
2.2485559 -0.11068502 2.7093863
2.213943 -0.10962868 2.6835289
2.1795006 -0.10856506 2.6574931
2.1363859 -0.10705115 2.620435
2.1016874 -0.10594032 2.5932436
2.0715547 -0.10504474 2.5713212
2.057812 -0.10497156 2.56953
2.0553026 -0.10547101 2.5817559
2.0452967 -0.10558654 2.5845838
2.041471 -0.10602149 2.5952308
2.0486825 -0.10703542 2.62005
2.0539265 -0.10795523 2.6425657
2.0560012 -0.10871564 2.6611791
2.0494623 -0.10902407 2.6687291
2.0441101 -0.10939679 2.6778524
2.035701 -0.1096065 2.6829858
2.0369084 -0.11033674 2.700861
2.0326333 -0.11077416 2.7115681
2.0289106 -0.11124423 2.7230749
2.0197845 -0.11141904 2.727354
2.0147979 -0.11182281 2.7372375
1.9832152 -0.11074345 2.7108164
1.9506278 -0.1095915 2.6826186
1.939297 -0.1096241 2.6834166
1.9285611 -0.10968809 2.684983
1.9102833 -0.10931846 2.675935
1.8932314 -0.10901202 2.6684339
1.8756634 -0.10866909 2.6600397
1.8650433 -0.10872416 2.6613874
1.847577 -0.10837557 2.6528547
1.8347267 -0.10829234 2.6508174
1.832099 -0.1088125 2.6635499
1.8265927 -0.1091644 2.6721637
1.8154358 -0.10917818 2.6725013
1.8098842 -0.10952864 2.6810799
1.8004006 -0.10964136 2.6838391
1.7931337 -0.10988864 2.6898921
1.7852949 -0.11010109 2.6950924
1.7823864 -0.11061954 2.7077835
1.7783251 -0.1110699 2.7188072
1.7660451 -0.11100671 2.7172606
1.7575845 -0.11118163 2.7215426
1.7545114 -0.11169912 2.7342098
1.74332 -0.11170042 2.7342415
1.7283993 -0.11145857 2.7283216
1.7199163 -0.11162878 2.7324877
1.7087744 -0.11162481 2.7323911
1.6992298 -0.11172321 2.7347994
1.6896858 -0.11182028 2.7371755
1.6785748 -0.11181161 2.7369633
1.6669594 -0.11176639 2.7358565
1.6589872 -0.11196385 2.74069
1.6458507 -0.11181048 2.7369356
1.6337752 -0.11172503 2.734844
1.6186658 -0.11142701 2.7275488
1.6142708 -0.11186493 2.7382684
1.6007366 -0.11166859 2.7334623
1.5927718 -0.11185817 2.7381036
1.5827934 -0.11190544 2.73926
1.5723244 -0.11191586 2.7395151
1.5603825 -0.11181833 2.7371278
1.5479753 -0.11168341 2.7338247
1.5400096 -0.11186672 2.7383122
1.5295941 -0.1118709 2.7384143
1.5206455 -0.11198064 2.7411008
1.5097653 -0.11194617 2.740257
1.5027404 -0.11219659 2.7463872
1.4904439 -0.1120517 2.7428403
1.4800792 -0.11204856 2.7427635
1.4716158 -0.11218784 2.7461729
1.4584504 -0.11196566 2.7407341
1.4490643 -0.11203007 2.7423108
1.4387527 -0.11202089 2.7420862
1.4326104 -0.11233608 2.7498014
1.4149563 -0.11174422 2.7353137
1.3969423 -0.11111283 2.7198579
1.386748 -0.11109637 2.7194552
1.3792762 -0.11129698 2.7243659
1.3650557 -0.1109496 2.7158628
1.3522348 -0.11070939 2.7099826
1.3341371 -0.11002808 2.6933053
1.3183527 -0.10952658 2.6810296
1.3048429 -0.10920572 2.6731753
1.2966192 -0.10932345 2.6760571
1.2892557 -0.10951374 2.6807151
1.2840288 -0.10988741 2.689862
1.2843218 -0.11074039 2.7107415
1.2785506 -0.11107713 2.7189846
1.2689389 -0.1110805 2.7190669
1.2593374 -0.11108252 2.7191164
1.251833 -0.11126868 2.7236731
1.2463863 -0.11163971 2.7327554
1.2367768 -0.11163846 2.7327249
1.2341375 -0.11226897 2.7481589
1.2261314 -0.11241504 2.7517343
1.2185191 -0.11259749 2.7562006
1.2092854 -0.11262954 2.7569849
1.2004561 -0.1126978 2.7586555
1.1900432 -0.11261497 2.7566283
1.1796523 -0.11253063 2.7545638
1.1735814 -0.11285809 2.7625797
1.1616532 -0.11262077 2.7567701
1.1520808 -0.11260756 2.7564468
1.1432856 -0.11266845 2.7579374
1.1363914 -0.112917 2.7640212
1.123812 -0.11259783 2.7562087
1.1165321 -0.11280649 2.7613161
1.1081164 -0.1129007 2.7636223
1.0974814 -0.11276625 2.7603314
1.088341 -0.11278215 2.7607205
1.0781161 -0.11268277 2.7582879
1.0541941 -0.11113545 2.720412
1.027635 -0.10927856 2.6749585
1.013797 -0.10875157 2.6620586
0.99792534 -0.10799307 2.6434917
0.98462188 -0.10749937 2.6314065
0.97730422 -0.1076541 2.6351941
0.96721482 -0.10750147 2.6314583
0.96262771 -0.10796107 2.6427085
0.95866174 -0.10849729 2.6558342
0.95462751 -0.10903348 2.6689589
0.95219386 -0.109762 2.6867921
0.95429915 -0.11103012 2.7178333
0.94769573 -0.11129718 2.7243707
0.944969 -0.11202675 2.7422295
0.94020939 -0.11252481 2.7544212
0.92994601 -0.11236528 2.7505162
0.92320341 -0.11263005 2.7569973
0.91139853 -0.11227424 2.7482877
0.90214634 -0.11222684 2.7471275
0.89568961 -0.11252759 2.7544892
0.88399172 -0.11216718 2.745667
0.87629777 -0.11231056 2.7491767
0.86708748 -0.11225842 2.7479005
0.85610449 -0.11197124 2.740871
0.84930176 -0.11222842 2.7471662
0.83925366 -0.11205555 2.7429345
0.82749993 -0.11164682 2.7329295
0.81810594 -0.11154909 2.7305372
0.80759692 -0.11129352 2.7242813
0.79994339 -0.11142811 2.7275758
0.79005003 -0.1112482 2.7231717
0.77963793 -0.11098839 2.7168124
0.76599568 -0.11025582 2.6988802
0.75651491 -0.1101105 2.6953228
0.74732852 -0.11000319 2.6926961
0.73922151 -0.11005209 2.693893
0.73137552 -0.1101394 2.6960304
0.7266289 -0.11069892 2.7097261
0.71899283 -0.11082418 2.7127924
0.71261096 -0.11114601 2.7206705
0.70794183 -0.1117439 2.7353055
0.69502443 -0.11103652 2.7179904
0.68441635 -0.11068323 2.7093422
0.67870277 -0.11112048 2.7200456
0.67054182 -0.11116096 2.7210367
0.66332579 -0.1113591 2.7258868
0.65468663 -0.11131832 2.7248883
0.64490592 -0.11107785 2.7190018
0.63675946 -0.1111142 2.7198918
0.63018781 -0.11142797 2.7275722
0.62046736 -0.11118393 2.7215989
0.61297965 -0.11133678 2.7253404
0.60222912 -0.11089104 2.7144291
0.59517825 -0.11112158 2.7200725
0.58535993 -0.11083265 2.7130003
0.57953793 -0.11130096 2.7244637
0.57037324 -0.1111296 2.7202687
0.56285554 -0.11127681 2.7238722
0.55372685 -0.11110317 2.7196219
0.54443121 -0.11088829 2.7143621
0.5374946 -0.11115269 2.7208343
0.5282355 -0.11093557 2.7155192
0.51788419 -0.11047663 2.7042851
0.50797302 -0.11009641 2.694978
0.50012481 -0.11015628 2.6964431
0.49263108 -0.11029549 2.6998513
0.48441577 -0.11027316 2.6993046
0.47672871 -0.11037041 2.7016852
0.46578729 -0.10970261 2.6853387
0.45746362 -0.10963674 2.6837261
0.44931832 -0.10961007 2.6830733
0.44182938 -0.10974352 2.6863399
0.43432516 -0.1098761 2.6895854
0.42461598 -0.10944343 2.6789939
0.41758236 -0.10969505 2.6851532
0.40976313 -0.10974417 2.6863558
0.40208822 -0.10983273 2.6885238
0.39440417 -0.10992039 2.6906695
0.38443848 -0.10936069 2.6769688
0.37719983 -0.10956758 2.6820328
0.37007123 -0.10981408 2.688067
0.36264393 -0.10997891 2.6921017
0.35597926 -0.11038572 2.70206
0.34874922 -0.11062996 2.7080383
0.34086365 -0.1106709 2.7090406
0.33334076 -0.11083245 2.7129951
0.32484603 -0.11066891 2.708992
0.31777033 -0.11099082 2.7168715
0.30884051 -0.11066307 2.708849
0.29951891 -0.11017188 2.6968253
0.29188105 -0.11028814 2.699671
0.28516969 -0.11076888 2.7114387
0.27646157 -0.11047741 2.7043042
0.26878464 -0.110591 2.7070847
0.2599439 -0.11021614 2.6979089
0.25190237 -0.11016526 2.6966634
0.24360016 -0.10999144 2.6924086
0.23593482 -0.11010123 2.695096
0.22749776 -0.10984407 2.6888008
0.21950604 -0.10978924 2.687459
0.21215159 -0.110059 2.6940622
0.20423177 -0.11004302 2.6936712
0.19638865 -0.1100668 2.6942534
0.18861361 -0.11013038 2.6958094
0.18063064 -0.11007085 2.6943524
0.17272173 -0.1100511 2.6938689
0.16457301 -0.10986743 2.689373
0.15668444 -0.10984576 2.6888423
0.14857948 -0.10966012 2.684298
0.14060695 -0.10955501 2.6817253
0.13299651 -0.1097343 2.6861145
0.12475716 -0.10938267 2.6775069
0.11691784 -0.10935624 2.6768599
0.10908335 -0.10932887 2.6761899
0.10095144 -0.10897426 2.6675096
0.093394205 -0.10923056 2.6737833
0.08551354 -0.10911878 2.6710474
0.077765852 -0.10916927 2.6722832
0.070064008 -0.10930046 2.6754944
0.062158134 -0.10910428 2.6706924
0.054463882 -0.10927444 2.6748574
0.0467459 -0.1094437 2.6790004
0.038975205 -0.10953041 2.6811233
0.031088017 -0.10924886 2.6742315
0.023310931 -0.10929291 2.6753097
0.015551022 -0.10949931 2.6803617
0.0077330112 -0.10929659 2.6754
-5.6101358e-005 -0.10933787 2.6764102
-0.0078481017 -0.1093374 2.6763988
-0.015657552 -0.10945846 2.6793621
-0.023440585 -0.10937449 2.6773069
-0.031211784 -0.10928962 2.6752293
-0.039029341 -0.10936709 2.6771255
-0.046945579 -0.10964767 2.6839936
-0.054474104 -0.10907029 2.6698604
-0.062526293 -0.10955305 2.6816778
-0.070333369 -0.10954517 2.6814847
-0.078227155 -0.10965876 2.6842649
-0.085977666 -0.10956741 2.682029
-0.093820587 -0.10959753 2.6827664
-0.10144155 -0.10938198 2.67749
-0.10923627 -0.10936948 2.6771839
-0.11777196 -0.11004929 2.6938248
-0.1250556 -0.10954557 2.681494
-0.13305968 -0.10969331 2.6851108
-0.14098117 -0.10975859 2.6867085
-0.14907886 -0.10994516 2.6912754
-0.15668085 -0.10976399 2.6868408
-0.16431934 -0.1096227 2.6833823
-0.17238684 -0.10976566 2.6868818
-0.18000796 -0.10962255 2.6833787
-0.18802883 -0.10972286 2.6858342
-0.19613819 -0.10986292 2.6892624
-0.20419353 -0.10996127 2.6916699
-0.21155819 -0.10969239 2.6850886
-0.21978147 -0.10987023 2.6894417
-0.22727336 -0.10968098 2.6848087
-0.23517603 -0.10969419 2.6851323
-0.24353288 -0.10990971 2.690408
-0.25099272 -0.10971777 2.6857095
-0.25976941 -0.11009381 2.6949143
-0.26731789 -0.10994064 2.691165
-0.27525339 -0.10994904 2.6913705
-0.28402874 -0.11028125 2.6995025
-0.29102722 -0.10992239 2.6907184
-0.2987493 -0.10984681 2.688868
-0.30657628 -0.10981087 2.6879885
-0.31463295 -0.10985509 2.6890707
-0.32365054 -0.11022255 2.6980658
-0.33101663 -0.1100216 2.6931467
-0.3387312 -0.10994132 2.6911819
-0.34682009 -0.10998161 2.692168
-0.35491762 -0.1100209 2.6931295
-0.36382425 -0.11030193 2.7000086
-0.37181973 -0.11029869 2.6999295
-0.37898263 -0.11005197 2.6938901
-0.38753429 -0.11020853 2.6977224
-0.39466193 -0.10996012 2.6916416
-0.40353146 -0.11019538 2.6974003
-0.41123214 -0.11010665 2.6952286
-0.41953793 -0.11017835 2.6969836
-0.42723161 -0.11008775 2.694766
-0.43523458 -0.11007685 2.6944993
-0.44372618 -0.11018582 2.6971667
-0.45223707 -0.1102937 2.6998074
-0.46009526 -0.11023954 2.6984816
-0.46777874 -0.11014422 2.6961484
-0.47701561 -0.1104098 2.7026491
-0.48523507 -0.11043303 2.7032182
-0.49328247 -0.11041512 2.7027795
-0.49987331 -0.11007512 2.6944573
-0.51030743 -0.1105769 2.7067394
-0.51818556 -0.11051584 2.7052448
-0.52701348 -0.11065418 2.7086313
-0.53257281 -0.1101106 2.6953251
-0.54336578 -0.11064722 2.7084613
-0.55184692 -0.11070224 2.7098076
-0.55852038 -0.11039639 2.7023211
-0.56659055 -0.11036956 2.7016642
-0.57590926 -0.1105813 2.7068474
-0.58273351 -0.11031295 2.7002783
-0.59187424 -0.11048254 2.7044299
-0.60147703 -0.11073061 2.7105019
-0.60958511 -0.11069854 2.709717
-0.61569434 -0.1103073 2.7001405
-0.62625259 -0.11071099 2.710022
-0.63527882 -0.11083489 2.7130549
-0.64271349 -0.11067956 2.7092524
-0.64989799 -0.11048371 2.7044582
-0.66060448 -0.11088202 2.7142084
-0.66659075 -0.11048603 2.7045155
-0.67760706 -0.1109213 2.7151697
-0.68428522 -0.11064248 2.7083449
-0.694148 -0.11087713 2.7140892
-0.70179635 -0.11075473 2.7110927
-0.71247178 -0.11110531 2.7196741
-0.71885055 -0.1107835 2.7117965
-0.72803676 -0.11089481 2.7145212
-0.7390765 -0.11128065 2.7239661
-0.745417 -0.11095623 2.7160249
-0.75492483 -0.11110325 2.7196238
-0.76175916 -0.11085593 2.7135699
-0.77102047 -0.11096136 2.7161505
-0.77864921 -0.11083011 2.7129378
-0.78960729 -0.11116843 2.7212193
-0.79865146 -0.11123089 2.722748
-0.80657494 -0.11113558 2.7204154
-0.81449163 -0.11103934 2.7180595
-0.82413918 -0.11117657 2.7214186
-0.8300119 -0.110805 2.7123232
-0.84233266 -0.11129098 2.7242193
-0.8490684 -0.11103464 2.7179441
-0.85787994 -0.11105014 2.7183237
-0.86761141 -0.11118116 2.7215309
-0.87553108 -0.11107767 2.7189977
-0.8859157 -0.11128382 2.7240434
-0.89727259 -0.11160476 2.7319
-0.90427864 -0.11138151 2.7264349
-0.91221243 -0.11127367 2.7237954
-0.92141891 -0.11131956 2.7249188
-0.93128526 -0.11144149 2.7279034
-0.94020003 -0.11144622 2.728019
-0.95043671 -0.111604 2.7318811
-0.96004164 -0.11168325 2.7338214
-0.96632749 -0.1113764 2.72631
-0.97493392 -0.11133807 2.7253716
-0.98659676 -0.1116442 2.7328653
-0.99420685 -0.11148822 2.7290473
-1.0028375 -0.11144633 2.7280219
-1.0152931 -0.11182436 2.7372751
-1.0229077 -0.11166509 2.7333767
-1.0312142 -0.11158136 2.7313271
-1.0412959 -0.11168733 2.7339211
-1.0542685 -0.11209672 2.7439425
-1.060447 -0.11178074 2.7362077
-1.0676811 -0.11157831 2.7312524
-1.0807595 -0.11198276 2.7411525
-1.0872586 -0.11170222 2.7342854
-1.0985618 -0.11191366 2.7394612
-1.1080313 -0.11193413 2.7399621
-1.1167583 -0.11187769 2.7385807
-1.1296669 -0.11223544 2.7473381
-1.1353643 -0.11187457 2.7385044
-1.1491133 -0.11230427 2.7490227
-1.1547834 -0.11194163 2.7401459
-1.162756 -0.11180404 2.7367778
-1.1778007 -0.11234098 2.7499213
-1.1873862 -0.11235058 2.7501562
-1.1993755 -0.11258344 2.7558565
-1.2089995 -0.11259009 2.7560194
-1.2218674 -0.1128941 2.7634609
-1.2278739 -0.11256211 2.7553339
-1.2395753 -0.11275099 2.7599578
-1.2488414 -0.11271491 2.7590744
-1.2589425 -0.11275186 2.759979
-1.269894 -0.11286155 2.7626641
-1.2787718 -0.11278438 2.7607749
-1.2914531 -0.11303899 2.7670076
-1.3007792 -0.11299599 2.765955
-1.3109659 -0.11302553 2.7666781
-1.3224596 -0.11316413 2.7700706
-1.3292191 -0.11289625 2.7635133
-1.341617 -0.11310533 2.7686315
-1.350987 -0.11305561 2.7674143
-1.3643303 -0.11333434 2.7742372
-1.3759503 -0.11346453 2.7774236
-1.3844768 -0.11333719 2.7743068
-1.3961385 -0.11346412 2.7774141
-1.4078301 -0.11358926 2.780477
-1.4213674 -0.11385804 2.7870564
-1.4258226 -0.11339827 2.7758019
-1.4384899 -0.11359109 2.7805219
-1.4548908 -0.11407151 2.7922819
-1.4602281 -0.11368138 2.782732
-1.4743935 -0.11397675 2.7899623
-1.4839183 -0.11390932 2.7883117
-1.4948622 -0.11394855 2.7892721
-1.5067735 -0.11405799 2.7919509
-1.5153726 -0.11391447 2.7884378
-1.5273224 -0.11402057 2.7910349
-1.5364062 -0.11391027 2.7883344
-1.5474265 -0.11394154 2.7891006
-1.5609013 -0.11414938 2.7941883
-1.5709893 -0.1141059 2.7931237
-1.5850238 -0.11434519 2.7989812
-1.5961359 -0.11436933 2.7995715
-1.6077622 -0.11442716 2.8009877
-1.6204104 -0.11455391 2.8040905
-1.6310799 -0.11453748 2.803688
-1.6417608 -0.11451948 2.8032472
-1.6514379 -0.11442956 2.8010464
-1.6595858 -0.11423299 2.7962346
-1.6682322 -0.1140705 2.7922571
-1.6763544 -0.11387193 2.7873964
-1.6932609 -0.11426615 2.7970464
-1.7029572 -0.1141692 2.7946734
-1.718924 -0.11448856 2.8024905
-1.733376 -0.11470086 2.8076873
-1.7484 -0.11494537 2.8136725
-1.760294 -0.11497959 2.8145103
-1.7663509 -0.11463188 2.8059988
-1.7777219 -0.1146286 2.8059185
-1.7950181 -0.11500226 2.8150651
-1.8053652 -0.11492608 2.8132005
-1.8178856 -0.1149856 2.8146574
-1.8342425 -0.11528275 2.8219311
-1.8435446 -0.11513279 2.8182607
-1.8572371 -0.11525445 2.8212383
-1.8698586 -0.11530573 2.8224936
-1.8808399 -0.11525308 2.8212049
-1.8946136 -0.11536831 2.8240256
-1.9089787 -0.1155151 2.8276186
-1.9211344 -0.11552435 2.8278449
-1.9338715 -0.1155654 2.8288498
-1.9460641 -0.11557076 2.8289809
-1.9565674 -0.11547348 2.8265998
-1.9727854 -0.11570973 2.8323829
-1.9833175 -0.11560873 2.8299108
-1.9984598 -0.11577316 2.8339355
-2.0119073 -0.11583507 2.8354509
-2.0236382 -0.11579507 2.8344719
-2.0406282 -0.11605171 2.8407538
-2.0524027 -0.11600748 2.8396711
-2.0665395 -0.11609352 2.8417768
-2.0783453 -0.11604535 2.8405981
-2.0949016 -0.11625842 2.845814
-2.107342 -0.11623887 2.8453352
-2.1186028 -0.11615186 2.8432052
-2.133466 -0.11625917 2.8458323
-2.1507699 -0.11649433 2.8515887
-2.1638963 -0.11649867 2.8516948
-2.179467 -0.1166307 2.8549268
-2.1908135 -0.11653333 2.8525431
-2.2107201 -0.11688659 2.8611906
-2.2178137 -0.11655914 2.8531747
-2.2328835 -0.11664911 2.8553774
-2.243659 -0.11651187 2.8520176
-2.2531934 -0.11630899 2.8470519
-2.267698 -0.1163604 2.84831
-2.2853529 -0.1165687 2.8534091
-2.3112092 -0.11718712 2.868547
-2.3239563 -0.11713424 2.8672523
-2.3392417 -0.11720592 2.8690069
-2.3545568 -0.11727494 2.8706965
-2.3692656 -0.11730983 2.8715506
-2.3833609 -0.11731079 2.8715739
-2.4006791 -0.11746611 2.8753762
-2.4109688 -0.11727437 2.8706827
-2.4270566 -0.1173619 2.8728249
-2.4444718 -0.11750882 2.8764215
-2.4567327 -0.1174043 2.873863
-2.4787743 -0.11776226 2.8826253
-2.4910798 -0.11765273 2.8799443
-2.5092952 -0.11781853 2.8840027
-2.5196557 -0.11761226 2.8789537
-2.5366127 -0.11771102 2.881371
-2.5536053 -0.11780674 2.8837142
-2.5746217 -0.11808237 2.8904612
-2.5883617 -0.11801946 2.8889215
-2.6027839 -0.11798463 2.8880684
-2.6158805 -0.11788685 2.885675
-2.6343725 -0.11802835 2.8891389
-2.649529 -0.11801599 2.8888361
-2.6633503 -0.11794098 2.8870006
-2.686022 -0.11825284 2.8946338
-2.6978478 -0.11808266 2.8904684
-2.7130933 -0.11805953 2.8899021
-2.7311029 -0.11815253 2.8921788
-2.7443304 -0.118035 2.8893018
-2.7465165 -0.11744291 2.8748083
-2.7652631 -0.11755796 2.8776243
-2.8007219 -0.11837421 2.8976047
-2.8237784 -0.11865602 2.9045029
-2.8406086 -0.11867057 2.9048591
-2.8539605 -0.11853657 2.9015791
-2.874347 -0.11869069 2.9053519
-2.9011252 -0.11910149 2.9154072
-2.9067721 -0.11864106 2.9041369
-2.9315264 -0.1189573 2.9118779
-2.954216 -0.11918259 2.9173925
-2.9684036 -0.11906017 2.9143963
-2.9904668 -0.11924917 2.9190226
-3.0104299 -0.1193486 2.9214566
-3.0253971 -0.11924583 2.9189408
-3.0504739 -0.11953627 2.9260499
-3.0647671 -0.11939902 2.9226904
-3.0819678 -0.11937177 2.9220233
-3.1028275 -0.11948148 2.9247091
-3.1229997 -0.11955933 2.9266148
-3.1454034 -0.11971691 2.9304719
-3.1619885 -0.11964818 2.9287896
-3.183738 -0.11977015 2.9317751
-3.2018449 -0.1197501 2.9312842
-3.2295864 -0.12008409 2.93946
-3.2492487 -0.12011111 2.9401212
-3.2771173 -0.12043489 2.9480469
-3.2849412 -0.12001804 2.9378431
-3.3211215 -0.12063147 2.9528589
-3.3312018 -0.12029071 2.9445176
-3.3585331 -0.12056858 2.9513197
-3.377651 -0.12054543 2.950753
-3.3967934 -0.12051876 2.9500999
-3.4205008 -0.12064869 2.9532804
-3.441221 -0.12066761 2.9537437
-3.4619727 -0.12068263 2.9541111
-3.4865675 -0.12082583 2.9576166
-3.5127397 -0.12101685 2.9622924
-3.5343723 -0.12104528 2.9629879
-3.5591104 -0.12117414 2.9661427
-3.5854363 -0.12135027 2.9704537
-3.6010139 -0.12115769 2.9657397
-3.6266499 -0.12129875 2.969193
-3.6585393 -0.12164098 2.9775701
-3.6765184 -0.12151431 2.9744692
-3.6976266 -0.12148676 2.9737947
-3.722666 -0.12158273 2.9761441
-3.7477503 -0.12167377 2.9783728
-3.7791543 -0.12196242 2.9854383
-3.8043411 -0.12204285 2.987407
-3.8264189 -0.1220178 2.986794
-3.8477356 -0.12196351 2.985465
-3.861161 -0.12165577 2.9779322
-3.888062 -0.12176828 2.9806859
-3.9166021 -0.12192493 2.9845207
-3.9547601 -0.12237173 2.9954574
-3.9794374 -0.12239291 2.995976
-4.0049515 -0.12243373 2.9969752
-4.0441413 -0.12288387 3.0079942
-4.0504699 -0.12233033 2.9944441
-4.0881724 -0.12271945 3.003969
-4.1195064 -0.12290794 3.0085833
-4.1403832 -0.12277815 3.0054059
-4.1653304 -0.12276391 3.0050573
-4.2024975 -0.12310176 3.0133274
-4.2242789 -0.12298148 3.0103831
-4.2623949 -0.12332916 3.0188937
-4.2891512 -0.12333971 3.0191522
-4.3151255 -0.12332154 3.0187073
-4.3452377 -0.12341481 3.0209904
-4.3704643 -0.12336266 3.0197141
-4.407259 -0.12362923 3.0262389
-4.4317408 -0.12354279 3.024123
-4.4777603 -0.12404755 3.036479
-4.5023341 -0.12394901 3.0340667
-4.5385604 -0.12416384 3.039325
-4.5648685 -0.12409956 3.0377519
-4.6112194 -0.12457076 3.0492861
-4.6476488 -0.12476286 3.0539882
-4.6707516 -0.12459007 3.0497587
-4.7030935 -0.12465739 3.0514066
-4.7472496 -0.12502789 3.0604761
-4.7872877 -0.12527882 3.066618
-4.8358359 -0.12574057 3.0779212
-4.8675909 -0.12575525 3.0782804
-4.8993883 -0.12576345 3.0784812
-4.9388609 -0.12595983 3.0832882
-4.9699063 -0.12593259 3.0826216
-5.0043941 -0.12598476 3.0838985
-5.0525737 -0.12637101 3.0933535
-5.0871835 -0.1264073 3.0942414
-5.1372437 -0.12681665 3.1042614
-5.1634035 -0.12662654 3.0996084
-5.2247853 -0.12728901 3.1158245
-5.2596397 -0.12729263 3.1159129
-5.3048778 -0.12753762 3.1219099
-5.3432908 -0.12760803 3.1236336
-5.3679247 -0.12734221 3.1171269
-5.4150834 -0.12760225 3.123492
4.4908819 -0.091791898 2.5911865
4.4729457 -0.092040516 2.5982046
4.4601855 -0.092393495 2.6081686
4.456883 -0.092942268 2.6236598
4.4509473 -0.093436971 2.637625
4.4286537 -0.093586482 2.6418455
4.3618007 -0.09278404 2.6191936
4.2968292 -0.092005283 2.5972099
4.1807728 -0.090109333 2.5436895
4.0966134 -0.088874713 2.5088372
4.0526958 -0.088497043 2.4981761
4.0292645 -0.08855924 2.4999318
4.0058579 -0.088617362 2.5015728
3.9917877 -0.088878743 2.5089512
3.9844677 -0.089289457 2.5205452
3.9821746 -0.089813545 2.5353396
3.9798288 -0.090337917 2.5501418
3.9639866 -0.090555437 2.5562823
3.9145954 -0.089999199 2.5405803
3.8653297 -0.089433566 2.5246131
3.7978098 -0.088430554 2.4962993
3.7613416 -0.088137396 2.4880238
3.7474253 -0.088367373 2.4945157
3.7426407 -0.088812061 2.5070686
3.7485919 -0.089513861 2.5268798
3.7585964 -0.090317048 2.5495529
3.756114 -0.090823546 2.5638509
3.7519319 -0.091290183 2.5770235
3.7518172 -0.091857418 2.5930359
3.7360454 -0.092041194 2.5982237
3.7210944 -0.0922428 2.6039147
3.6971498 -0.09221781 2.6032095
3.6463194 -0.091513023 2.5833139
3.5964503 -0.090819106 2.5637255
3.5646 -0.090569831 2.5566888
3.5409286 -0.090522036 2.5553393
3.5197225 -0.090532549 2.5556362
3.4912789 -0.09035144 2.5505238
3.4741731 -0.0904589 2.5535572
3.4530602 -0.090458304 2.5535405
3.4512274 -0.090961516 2.5677457
3.4413376 -0.091252886 2.5759704
3.4362209 -0.091670811 2.5877683
3.4342523 -0.092174016 2.6019731
3.4147372 -0.092205249 2.6028547
3.401593 -0.092405654 2.6085122
3.3749881 -0.092236377 2.6037333
3.3492296 -0.092084117 2.5994353
3.3329809 -0.09218888 2.6023929
3.3301091 -0.092662998 2.6157763
3.3091462 -0.092632264 2.6149089
3.2756948 -0.092245385 2.6039877
3.2181306 -0.091166712 2.5735378
3.1654456 -0.09021017 2.546536
3.1020653 -0.08893165 2.5104446
3.0862164 -0.089004777 2.5125089
3.0850778 -0.089501739 2.5265377
3.0861986 -0.090066783 2.5424883
3.0972595 -0.090926588 2.5667596
3.0936148 -0.091358557 2.5789535
3.0929892 -0.091881566 2.5937176
3.0884831 -0.09229105 2.6052768
3.0664034 -0.092173353 2.6019547
3.0512125 -0.092258833 2.6043675
3.0261731 -0.092042044 2.5982478
3.0034654 -0.091890335 2.5939651
2.9694872 -0.091386341 2.5797379
2.946157 -0.091202378 2.5745449
2.9311419 -0.091271587 2.5764985
2.9266257 -0.091666892 2.5876575
2.9160933 -0.091873758 2.593497
2.9085317 -0.092173673 2.6019635
2.9009459 -0.092472814 2.6104081
2.8896294 -0.092652351 2.6154759
2.8908751 -0.093235642 2.6319416
2.8824644 -0.093509041 2.6396594
2.8813865 -0.094021432 2.6541238
2.8721821 -0.094269633 2.6611302
2.8622301 -0.094492584 2.6674237
2.8529952 -0.094738513 2.674366
2.8459258 -0.095056213 2.6833346
2.837378 -0.095324524 2.6909087
2.82881 -0.09559188 2.6984558
2.8029096 -0.095269836 2.6893647
2.7849989 -0.095213786 2.6877825
2.7664039 -0.09513019 2.6854229
2.7471311 -0.095018834 2.6822793
2.7385986 -0.095276527 2.6895537
2.718668 -0.09513507 2.6855602
2.6980748 -0.094965354 2.6807694
2.6853104 -0.095067576 2.683655
2.6760774 -0.0952935 2.690033
2.6598003 -0.095266551 2.6892719
2.6540639 -0.095615812 2.6991313
2.6413045 -0.09571147 2.7018316
2.6201906 -0.095500574 2.6958783
2.6116378 -0.095744535 2.7027652
2.5933714 -0.09563002 2.6995325
2.5744553 -0.095486939 2.6954935
2.5548966 -0.095315099 2.6906426
2.5120556 -0.094264515 2.6609855
2.4837761 -0.09374816 2.6464097
2.4644685 -0.093563393 2.6411936
2.4363742 -0.093037933 2.6263607
2.4097428 -0.092559554 2.6128564
2.3872645 -0.092233092 2.6036406
2.3742881 -0.092269182 2.6046593
2.3640115 -0.092408344 2.608588
2.3684528 -0.093124971 2.6288176
2.3634586 -0.093474001 2.6386704
2.35045 -0.093505435 2.6395576
2.3440821 -0.093800128 2.6478765
2.3370252 -0.094067708 2.6554301
2.3299444 -0.09433464 2.6629651
2.330056 -0.094894812 2.6787784
2.3176715 -0.094946861 2.6802475
2.3052988 -0.094997168 2.6816678
2.2961843 -0.095180333 2.6868382
2.2799399 -0.095065564 2.6835983
2.2759891 -0.095462278 2.6947973
2.2597792 -0.095343702 2.6914501
2.2493732 -0.095467277 2.6949384
2.2351365 -0.095426001 2.6937733
2.2215612 -0.09540993 2.6933193
2.1813872 -0.094241768 2.6603434
2.1306872 -0.092599548 2.6139853
2.0978971 -0.091718055 2.5891018
2.069032 -0.090996072 2.5687211
2.0552986 -0.090932339 2.5669219
2.0484407 -0.091171324 2.5736682
2.0428014 -0.091465205 2.581964
2.0420747 -0.091981366 2.596535
2.0425117 -0.092553951 2.6126983
2.0465519 -0.093295164 2.6336219
2.0517097 -0.094094031 2.656173
2.0445783 -0.094333015 2.6629195
2.0392442 -0.094655767 2.6720304
2.035687 -0.095062859 2.6835222
2.0314782 -0.095441744 2.6942174
2.0236273 -0.095650554 2.7001119
2.0109823 -0.095631368 2.6995704
2.0007365 -0.095724225 2.7021916
1.9881228 -0.095701709 2.701556
1.9778904 -0.09579172 2.704097
1.9564921 -0.095336251 2.6912398
1.9381125 -0.095020704 2.682332
1.9233 -0.094874747 2.6782119
1.9079472 -0.094697729 2.6732149
1.8914832 -0.094460592 2.6665208
1.8704667 -0.093989342 2.6532178
1.8541323 -0.093746565 2.6463645
1.8407097 -0.093646519 2.6435406
1.8341448 -0.09389393 2.6505244
1.826422 -0.094082423 2.6558452
1.8243238 -0.094562456 2.6693962
1.8171076 -0.094779223 2.6755154
1.8132265 -0.095171399 2.6865861
1.7976038 -0.094946027 2.6802242
1.7881317 -0.095042355 2.6829431
1.7836263 -0.095403232 2.6931303
1.7713838 -0.095349886 2.6916244
1.766824 -0.095709719 2.701782
1.7562292 -0.095742807 2.7027164
1.746186 -0.095804274 2.7044513
1.7350681 -0.095804878 2.7044685
1.7212784 -0.095654719 2.7002294
1.7102025 -0.095652089 2.7001555
1.7018033 -0.095797844 2.7042699
1.6875657 -0.095612422 2.6990354
1.6807572 -0.09584596 2.7056282
1.6665751 -0.095657058 2.7002957
1.6566181 -0.095707543 2.7017207
1.647187 -0.095787026 2.7039645
1.6351693 -0.095713906 2.7019005
1.6252377 -0.095760517 2.7032161
1.6142871 -0.095745087 2.7027805
1.6028429 -0.095697768 2.7014449
1.5914202 -0.0956489 2.7000654
1.5749688 -0.095292933 2.6900165
1.5646197 -0.09530168 2.6902637
1.5557823 -0.095401093 2.6930699
1.5444546 -0.095345929 2.6915126
1.5311693 -0.095166199 2.6864393
1.5253129 -0.095446728 2.6943583
1.5125649 -0.095294766 2.6900687
1.5022918 -0.095295571 2.6900911
1.4900919 -0.095171206 2.6865804
1.4784076 -0.095076144 2.683897
1.472508 -0.095352247 2.6916912
1.4613268 -0.095285699 2.6898124
1.4492198 -0.095155336 2.6861327
1.4413952 -0.095304176 2.6903343
1.4307413 -0.095264666 2.6892188
1.4135697 -0.094785459 2.6756914
1.4071685 -0.095024697 2.6824448
1.3956605 -0.09491799 2.6794326
1.3860188 -0.094935514 2.6799276
1.3759295 -0.094920374 2.6794999
1.3626765 -0.094683133 2.6728029
1.3548908 -0.09482307 2.676753
1.3430547 -0.094677471 2.6726427
1.3272382 -0.094245076 2.6604371
1.313722 -0.093968891 2.6526403
1.2998216 -0.093658946 2.6438909
1.2899286 -0.093633309 2.6431673
1.2817938 -0.093733884 2.6460066
1.2745196 -0.093897402 2.6506226
1.2663684 -0.093996309 2.6534142
1.2612067 -0.094318315 2.6625044
1.2521758 -0.094351672 2.6634459
1.2435726 -0.094416052 2.6652634
1.2358094 -0.094543725 2.6688673
1.220524 -0.09409149 2.6561012
1.2140315 -0.094313428 2.6623664
1.2029806 -0.094179995 2.6585996
1.1997402 -0.094658785 2.6721156
1.1911436 -0.094717257 2.6737659
1.1833559 -0.094839513 2.6772172
1.1695371 -0.094474606 2.6669164
1.1633644 -0.094724521 2.6739709
1.1504272 -0.094421327 2.6654122
1.1438442 -0.094637044 2.6715016
1.133719 -0.094558917 2.669296
1.121676 -0.094316356 2.6624489
1.1127656 -0.094333462 2.6629319
1.1011828 -0.094120584 2.6569226
1.0949645 -0.094364576 2.6638103
1.0868288 -0.094444156 2.6660566
1.0741943 -0.094128951 2.6571589
1.0657115 -0.094173454 2.6584151
1.0553846 -0.094052501 2.6550007
1.0483851 -0.094226658 2.6599174
1.0399108 -0.094268277 2.6610918
1.0285498 -0.094044827 2.6547842
1.0150844 -0.093621537 2.6428349
0.999919 -0.093030833 2.6261599
0.99191773 -0.093100287 2.6281207
0.98146218 -0.092936762 2.6235044
0.97277915 -0.092937849 2.6235352
0.96582806 -0.093104094 2.6282282
0.95577979 -0.092970297 2.6244512
0.94983298 -0.093234845 2.6319191
0.94183147 -0.093298927 2.6337283
0.9358303 -0.093562394 2.6411653
0.9254902 -0.09339112 2.6363306
0.92043895 -0.093753554 2.6465619
0.91240603 -0.093814477 2.6482816
0.90372521 -0.093807518 2.6480851
0.89345306 -0.093631864 2.6431267
0.88448662 -0.093589187 2.6419218
0.87522024 -0.09351185 2.6397388
0.86503869 -0.093332484 2.6346755
0.86076522 -0.093791544 2.6476343
0.84968626 -0.093509071 2.6396604
0.84017849 -0.09339378 2.6364057
0.83400446 -0.093648732 2.6436028
0.82392269 -0.093463868 2.6383843
0.81653464 -0.093582146 2.6417232
0.8085494 -0.09363199 2.6431298
0.79766709 -0.093342111 2.6349473
0.78913367 -0.093322121 2.6343827
0.78345031 -0.093640603 2.6433733
0.77350307 -0.093449093 2.6379673
0.76637816 -0.093596369 2.6421244
0.75840867 -0.093640864 2.6433806
0.74907428 -0.093514211 2.6398053
0.74057722 -0.093488701 2.6390853
0.73209065 -0.093462229 2.6383379
0.72282147 -0.093332365 2.6346722
0.71410304 -0.093269736 2.6329041
0.70928311 -0.093719043 2.6455874
0.69799554 -0.093312569 2.6341133
0.69032532 -0.093384057 2.636131
0.68415141 -0.093660399 2.6439321
0.67298698 -0.093250252 2.632354
0.66679043 -0.093525127 2.6401134
0.65716755 -0.093318589 2.6342831
0.65117061 -0.093626492 2.6429751
0.64182097 -0.093452364 2.6380594
0.63273889 -0.093311518 2.6340835
0.6255303 -0.093445174 2.6378567
0.61762166 -0.093474731 2.6386909
0.61016339 -0.09357243 2.641449
0.60113961 -0.093427762 2.6373651
0.59411812 -0.093592905 2.6420267
0.5851267 -0.093446314 2.6378884
0.57915467 -0.093782857 2.6473889
0.56933886 -0.093496025 2.639292
0.56206989 -0.093623519 2.6428912
0.55375957 -0.093577057 2.6415796
0.54586601 -0.093599021 2.6421995
0.53916961 -0.093828298 2.6486719
0.53165424 -0.093918145 2.6512077
0.52219212 -0.093659908 2.6439183
0.51430327 -0.093678534 2.6444438
0.50641584 -0.093696326 2.6449463
0.49797457 -0.093608916 2.6424789
0.49119192 -0.093833856 2.6488285
0.48204491 -0.093605414 2.6423802
0.47399855 -0.09358497 2.6418028
0.46665412 -0.093703121 2.645138
0.45895278 -0.093750775 2.6464834
0.45091176 -0.093727842 2.6458361
0.44271338 -0.093669139 2.6441786
0.43582571 -0.093888998 2.6503851
0.42810926 -0.093933485 2.6516411
0.41976348 -0.093837313 2.648926
0.41312611 -0.094125025 2.6570477
0.4035823 -0.093747184 2.6463821
0.396321 -0.093893394 2.6505094
0.38816959 -0.09382873 2.6486838
0.38031623 -0.09383326 2.6488118
0.37288287 -0.093942143 2.6518855
0.365026 -0.093945079 2.6519682
0.35757199 -0.094052441 2.654999
0.34945089 -0.093983568 2.653055
0.34210986 -0.094124496 2.6570332
0.3340002 -0.094053954 2.6550417
